# .PCD v0.7 - Point Cloud Data file format
VERSION 0.7
FIELDS x y z rgb
SIZE 4 4 4 4
TYPE F F F F
COUNT 1 1 1 1
WIDTH 1073
HEIGHT 1
VIEWPOINT 0 0 0 1 0 0 0
POINTS 1073
DATA ascii
-3.9423046 18.007183 1.5397147 5.9937865e-39
-3.9750526 17.996389 1.5385495 8.112128e-39
-3.9730482 17.99651 1.5384685 7.8369817e-39
-3.9444182 18.007235 1.5377793 6.0852605e-39
-3.9400117 18.011374 1.5398414 4.9792773e-39
-3.9421334 18.011425 1.5378987 5.8093953e-39
-3.9379826 18.011496 1.5397593 4.6105004e-39
-3.940104 18.011547 1.5378165 4.8870816e-39
-3.9751439 17.996561 1.5365494 7.928457e-39
-3.9445105 18.007408 1.535762 5.9930649e-39
-3.9422257 18.011599 1.5358738 5.625004e-39
-3.9380748 18.011669 1.5377342 4.4268294e-39
-3.9401965 18.011721 1.5357915 4.7026904e-39
-3.9752352 17.996733 1.5345491 7.928457e-39
-3.9443474 18.011652 1.533931 5.9008692e-39
-3.9423182 18.011772 1.5338488 5.5328084e-39
-3.9381673 18.011843 1.5357093 4.4271853e-39
-3.940289 18.011894 1.5337666 4.7026904e-39
-3.9753265 17.996904 1.532549 7.8369803e-39
-3.9444399 18.011826 1.531906 5.9008692e-39
-3.9424107 18.011946 1.5318238 5.5328056e-39
-3.9382598 18.012016 1.5336844 4.4271853e-39
-3.9403815 18.012068 1.5317415 4.7952433e-39
-3.9754179 17.997076 1.5305489 7.8369803e-39
-3.9445322 18.011999 1.5298811 5.9930649e-39
-3.9425032 18.012119 1.5297989 5.6250012e-39
-3.9386301 18.008116 1.5314817 4.5193809e-39
-3.9404738 18.012241 1.5297167 4.887439e-39
-3.9366086 18.008238 1.5313997 4.4268322e-39
-3.9384446 18.012363 1.5296345 4.6115766e-39
-3.9756107 17.994268 1.5284256 7.8369803e-39
-3.9446247 18.012173 1.5278562 6.0852605e-39
-3.9424052 18.015255 1.5278922 5.6249984e-39
-3.9405663 18.012415 1.5276917 4.9796318e-39
-3.9364154 18.012486 1.5295521 4.4268294e-39
-3.9385371 18.012537 1.5276095 4.7037694e-39
-3.9756005 17.997417 1.5265484 7.8369803e-39
-3.9715917 17.997658 1.5263859 7.8366285e-39
-3.9447172 18.012346 1.5258312 6.1774561e-39
-3.942688 18.012468 1.525749 5.6249984e-39
-3.9406588 18.012589 1.5256667 4.9796318e-39
-3.9365079 18.012657 1.5275272 4.519025e-39
-3.9386296 18.012711 1.5255845 4.7037694e-39
-3.9344788 18.012779 1.5274451 4.703782e-39
-3.9368849 18.008757 1.5253479 4.6115766e-39
-3.9756918 17.997589 1.5245482 7.8362628e-39
-3.971683 17.997829 1.5243858 7.8366285e-39
-3.9448097 18.01252 1.5238063 5.9930649e-39
-3.9427805 18.01264 1.523724 5.4406071e-39
-3.9407513 18.012762 1.5236418 4.7952377e-39
-3.9387221 18.012884 1.5235596 4.6115724e-39
-3.9348633 18.008877 1.5252661 4.7963336e-39
-3.936693 18.013006 1.5234773 4.6115766e-39
-3.9717743 17.998001 1.5223856 7.7444329e-39
-3.9449019 18.012693 1.5217813 6.0852605e-39
-3.942873 18.012814 1.5216991 5.9937809e-39
-3.9408436 18.012936 1.5216169 5.2562159e-39
-3.9388144 18.013058 1.5215347 4.9803549e-39
-3.9349554 18.00905 1.5232489 4.7963336e-39
-3.9367852 18.013178 1.5214523 4.795965e-39
-3.9718657 17.998173 1.5203853 7.7444357e-39
-3.9449944 18.012867 1.5197563 6.1774561e-39
-3.9429653 18.012989 1.5196741 6.1785281e-39
-3.9409361 18.013109 1.5195919 5.3487674e-39
-3.9389069 18.013231 1.5195097 4.8885152e-39
-3.971957 17.998344 1.5183852 7.8366313e-39
-3.9699526 17.998465 1.518304 7.8366313e-39
-3.9453392 18.008965 1.5176066 6.2696518e-39
-3.9433177 18.009085 1.5175247 5.71755e-39
-3.9410286 18.013283 1.5175668 4.9799849e-39
-3.9368777 18.013353 1.5194274 4.6115738e-39
-3.9389994 18.013405 1.5174847 4.5197327e-39
-3.9720483 17.998516 1.516385 8.0210226e-39
-3.9700439 17.998636 1.5163037 8.0210226e-39
-3.9454312 18.009136 1.5155892 6.2696518e-39
-3.9431503 18.013336 1.5156242 5.7175486e-39
-3.9411211 18.013456 1.5155419 4.9799835e-39
-3.9721396 17.998688 1.5143846 8.0210226e-39
-3.9455235 18.00931 1.513572 6.1774561e-39
-3.9432428 18.013508 1.5135992 6.1785267e-39
-3.9390919 18.013578 1.5154597 4.4275342e-39
-3.9412136 18.01363 1.513517 5.4409617e-39
-3.9456155 18.009483 1.5115547 6.0852605e-39
-3.9433351 18.013683 1.5115741 6.0863311e-39
-3.9391842 18.013752 1.5134349 4.7963167e-39
-3.9413059 18.013803 1.511492 5.4409617e-39
-3.9742212 18.001909 1.510538 7.5604074e-39
-3.9458945 18.006617 1.5094674 5.9930649e-39
-3.9438787 18.006737 1.5093857 5.5331587e-39
-3.9457998 18.009829 1.5075202 5.9015881e-39
-3.9413984 18.013977 1.509467 4.7963139e-39
-3.9437783 18.009949 1.5074383 5.5338818e-39
-3.9458919 18.010002 1.5055029 5.9015909e-39
-3.9438703 18.010122 1.505421 5.6260802e-39
-3.9459839 18.010174 1.5034858 5.8093953e-39
-3.9439623 18.010296 1.5034038 5.6260802e-39
-3.9460759 18.010347 1.5014684 5.8090379e-39
-3.9440546 18.010469 1.5013865 5.6260802e-39
-3.9461682 18.010521 1.4994512 5.9012364e-39
-3.9524927 18.00729 1.4976431 6.4536941e-39
-3.9504771 18.00741 1.4975615 6.2693028e-39
-3.9484613 18.00753 1.4974798 6.1771072e-39
-3.9441466 18.010641 1.4993691 5.6257243e-39
-3.9462602 18.010693 1.4974339 5.993432e-39
-3.9423223 18.007721 1.4992464 5.3494933e-39
-3.9442387 18.010815 1.4973519 5.7171996e-39
-3.9405081 18.004816 1.4991239 4.9810737e-39
-3.942414 18.007893 1.4972348 5.3494933e-39
-3.938498 18.004936 1.4990426 4.3357043e-39
-3.9405997 18.004988 1.4971181 4.9810737e-39
-3.9387956 18.0021 1.4970024 4.2435101e-39
-3.9730701 17.997244 1.4963503 7.4696383e-39
-3.9525847 18.007462 1.4956317 6.4536941e-39
-3.9463522 18.010866 1.4954166 6.0856276e-39
-3.9445217 18.007944 1.4953048 5.625004e-39
-3.9425058 18.008066 1.4952232 5.2572977e-39
-3.94049 18.008186 1.4951415 4.9803549e-39
-3.9367912 18.002218 1.4969211 4.7974069e-39
-3.9388869 18.00227 1.4950022 4.2435101e-39
-3.9347868 18.00234 1.49684 4.7974098e-39
-3.9368825 18.00239 1.4949208 4.7974069e-39
-3.9327824 18.002459 1.4967587 4.1524033e-39
-3.9348781 18.00251 1.4948395 4.7052141e-39
-3.9310052 17.999586 1.4966443 6.457294e-39
-3.9328737 18.00263 1.4947584 4.1520431e-39
-3.9310963 17.999758 1.4946494 6.3647383e-39
-3.9731612 17.997416 1.4943558 7.4696383e-39
-3.9711623 17.997534 1.4942749 7.4696383e-39
-3.9464445 18.01104 1.4933994 6.2693e-39
-3.944423 18.01116 1.4933174 5.5328084e-39
-3.9425976 18.008238 1.4932116 5.1647461e-39
-3.9407828 18.005331 1.4931064 4.8881606e-39
-3.9389782 18.002441 1.4930019 4.2427912e-39
-3.9369738 18.002562 1.4929206 4.8885264e-39
-3.9349694 18.002682 1.4928396 4.6130185e-39
-3.9331861 17.999807 1.492736 4.0598475e-39
-3.9311874 17.999928 1.492655 6.2725426e-39
-3.9732523 17.997585 1.4923613 7.4696369e-39
-3.9465365 18.011211 1.4913821 5.9927131e-39
-3.944515 18.011333 1.4913 5.5324511e-39
-3.9426897 18.00841 1.4912 5.0718302e-39
-3.9408743 18.005505 1.4911005 5.0725519e-39
-3.9390695 18.002613 1.4910017 4.7037694e-39
-3.9370651 18.002733 1.4909204 4.7963308e-39
-3.9350607 18.002853 1.4908392 4.6119395e-39
-3.9332771 17.999979 1.4907415 3.8754563e-39
-3.9312785 18.000099 1.4906603 5.5346217e-39
-3.9732354 18.000746 1.4903823 7.4696369e-39
-3.9466286 18.011385 1.4893647 5.9005175e-39
-3.944607 18.011507 1.4892828 5.6246467e-39
-3.9427814 18.008583 1.4891886 5.0718302e-39
-3.9409659 18.005676 1.4890949 5.1636685e-39
-3.9391608 18.002785 1.4890015 4.6115766e-39
-3.9371564 18.002905 1.4889202 4.7963308e-39
-3.9351521 18.003025 1.488839 4.7041379e-39
-3.9333682 18.000151 1.4887468 4.0594916e-39
-3.9290476 18.003214 1.4905956 1.0882324e-38
-3.9311433 18.003265 1.4886765 5.7190129e-39
-3.9270432 18.003334 1.4905144 1.3187212e-38
-3.9291389 18.003386 1.4885954 1.0513542e-38
-3.9252822 18.000458 1.4904175 1.2634038e-38
-3.9271345 18.003506 1.4885141 1.2910628e-38
-3.9734344 17.997929 1.488372 7.4696383e-39
-3.9467206 18.011559 1.4873475 5.9008734e-39
-3.9446993 18.011679 1.4872655 5.7164808e-39
-3.9428732 18.008755 1.4871769 5.0718302e-39
-3.9408574 18.008877 1.4870951 5.1636685e-39
-3.9392521 18.002956 1.4870013 4.5193809e-39
-3.9370375 18.006088 1.4869261 4.7963308e-39
-3.9352434 18.003197 1.4868388 4.8885292e-39
-3.9334593 18.00032 1.4867523 4.2438828e-39
-3.9312346 18.003437 1.4866765 5.8112086e-39
-3.9292302 18.003557 1.4865953 1.0145122e-38
-3.973418 18.001087 1.4863819 7.4696383e-39
-3.9715266 17.998219 1.4862964 7.4696383e-39
-3.9468129 18.011732 1.4853302 5.9930677e-39
-3.9447913 18.011852 1.4852483 5.8086764e-39
-3.9427698 18.011972 1.4851663 5.2555026e-39
-3.9409492 18.009048 1.4850837 5.1636713e-39
-3.9393435 18.003128 1.485001 4.6104976e-39
-3.937129 18.00626 1.4849203 4.7956147e-39
-3.9353347 18.003368 1.4848386 4.9807248e-39
-3.9335504 18.000492 1.4847577 4.3360785e-39
-3.9313259 18.003609 1.4846761 5.8112086e-39
-3.9293215 18.003729 1.4845948 1.0145122e-38
-3.9736166 17.99827 1.4843829 7.4696411e-39
-3.9716177 17.99839 1.4843019 7.4696411e-39
-3.9469049 18.011904 1.483313 6.1774589e-39
-3.9448833 18.012026 1.4832311 5.9923488e-39
-3.9428618 18.012146 1.4831492 5.4398939e-39
-3.941041 18.00922 1.4830723 5.1636713e-39
-3.9394348 18.0033 1.4830009 4.5183019e-39
-3.9372206 18.006432 1.4829142 4.7034191e-39
-3.935426 18.00354 1.4828385 4.9807248e-39
-3.9334216 18.00366 1.4827572 4.2438828e-39
-3.9314172 18.00378 1.4826761 5.5346217e-39
-3.9294128 18.003901 1.4825948 9.8685351e-39
-3.9737074 17.998442 1.4823885 7.4696411e-39
-3.9395261 18.003471 1.4810005 4.4261063e-39
-3.9373121 18.006605 1.4809084 4.7034191e-39
-3.935302 18.006725 1.4808269 4.9807248e-39
-3.9332919 18.006845 1.4807454 4.2428038e-39
-3.931282 18.006966 1.4806641 4.9814479e-39
-3.9292719 18.007086 1.4805826 9.407557e-39
-3.9396174 18.003643 1.4790004 4.4261063e-39
-3.9374037 18.006777 1.4789026 4.6112234e-39
-3.9353936 18.006897 1.4788212 4.7963336e-39
-3.9333837 18.007017 1.4787396 3.8740213e-39
-3.9306099 18.017311 1.4785994 4.4282741e-39
-3.9285808 18.017431 1.4785172 9.3153614e-39
-3.9395053 18.006828 1.4769781 4.4261063e-39
-3.9372852 18.009979 1.4768741 4.6112206e-39
-3.9352694 18.010099 1.4767925 4.7041379e-39
-3.9327316 18.017363 1.4766567 3.5063178e-39
-3.9307024 18.017485 1.4765745 4.0594916e-39
-3.9286733 18.017607 1.4764923 9.5919482e-39
-3.9395969 18.007 1.4749722 4.7948888e-39
-3.937377 18.010153 1.4748627 4.7956119e-39
-3.9348533 18.017414 1.4747139 4.5197439e-39
-3.9328241 18.017536 1.4746317 4.0598475e-39
-3.930795 18.017658 1.4745495 4.5211858e-39
-3.9287658 18.01778 1.4744672 9.3153586e-39
-3.9392793 18.013252 1.4728988 4.6104976e-39
-3.936769 18.020443 1.4727379 4.6112206e-39
-3.9347343 18.020565 1.4726555 4.1520403e-39
-3.9326997 18.020687 1.4725732 3.8754563e-39
-3.9308872 18.017832 1.4725245 4.3367945e-39
-3.928858 18.017954 1.4724423 9.2231629e-39
-3.9395764 18.010376 1.470921 4.5183019e-39
-3.93735 18.013546 1.4707997 4.6112206e-39
-3.9353285 18.013668 1.4707178 4.0598447e-39
-3.9327922 18.020861 1.4705427 3.8754563e-39
-3.9309797 18.018005 1.4704996 4.2445989e-39
-3.9289505 18.018127 1.4704173 9.1309673e-39
-3.9398715 18.007515 1.4689546 4.7026932e-39
-3.9378617 18.007637 1.4688731 4.7034163e-39
-3.9354205 18.013842 1.4687004 4.244236e-39
-3.9399633 18.007689 1.4669489 4.7026904e-39
-3.9379532 18.007809 1.4668673 4.7037722e-39
-3.9724374 17.999929 1.4663507 7.468209e-39
-3.939852 18.010893 1.4648865 4.4261035e-39
-3.9725285 18.000099 1.4643561 7.5596885e-39
-3.9380448 18.00798 1.4648615 4.5193809e-39
-3.9403479 18.005014 1.4629989 4.4261035e-39
-3.9726195 18.000271 1.4623616 7.5596885e-39
-3.9383435 18.005135 1.4629174 4.4271853e-39
-3.9404392 18.005186 1.4609987 4.6108521e-39
-3.9382279 18.008324 1.4608499 4.6115738e-39
-3.9407306 18.002356 1.459071 4.9796346e-39
-3.9362178 18.008444 1.4607683 4.1520375e-39
-3.9385262 18.005478 1.4589173 4.6115738e-39
-3.9408214 18.002527 1.4570764 5.0718274e-39
-3.9365218 18.005598 1.458836 4.3367847e-39
-3.9386175 18.00565 1.456917 4.6115724e-39
-3.9409125 18.002699 1.4550819 5.1640231e-39
-3.9366131 18.00577 1.4568356 4.2445891e-39
-3.9389138 18.002817 1.4550009 4.6115724e-39
-3.9546747 18.008049 1.4534779 6.4533284e-39
-3.9528308 18.005152 1.4534853 6.4533284e-39
-3.9508264 18.005272 1.4534039 6.453327e-39
-3.948822 18.005392 1.4533228 6.4536829e-39
-3.9468176 18.005512 1.4532415 6.2682098e-39
-3.9446244 18.008652 1.4530706 5.9005035e-39
-3.9428089 18.005753 1.453079 5.6239194e-39
-3.9408045 18.005873 1.4529978 5.1640203e-39
-3.9367044 18.005941 1.4548355 3.9680022e-39
-3.9390049 18.002989 1.4530063 4.5197327e-39
-3.9347 18.00606 1.4547544 3.783255e-39
-3.9370062 18.003109 1.4529253 3.9680008e-39
-3.9332197 17.999088 1.4548733 3.5995826e-39
-3.9355226 17.996067 1.4530594 3.6914153e-39
-3.9306912 18.0063 1.4545919 8.3015626e-39
-3.9286869 18.00642 1.4545108 1.1897192e-38
-3.9313192 17.999378 1.4528059 8.2093669e-39
-3.9547663 18.008221 1.451472 6.4533284e-39
-3.9527562 18.008341 1.4513906 6.3611327e-39
-3.9509177 18.005444 1.4514036 6.2689357e-39
-3.9489133 18.005564 1.4513224 6.2692916e-39
-3.946909 18.005684 1.4512413 6.0841745e-39
-3.944716 18.008823 1.4510648 5.7164696e-39
-3.9427059 18.008944 1.4509833 5.531721e-39
-3.9408958 18.006044 1.4509975 5.0718246e-39
-3.9386859 18.009184 1.4508203 4.5197327e-39
-3.9366758 18.009304 1.450739 3.9680008e-39
-3.9348826 18.006403 1.4507539 3.783611e-39
-3.9293282 17.999496 1.4527252 1.1989388e-38
-3.9311008 18.003639 1.4506878 8.1171713e-39
-3.9389827 18.006334 1.4489162 4.5197327e-39
-3.9369783 18.006454 1.4488349 3.967998e-39
-3.9334011 17.99943 1.4508996 3.507387e-39
-3.934974 18.006575 1.4487538 3.8758066e-39
-3.9334917 17.999599 1.4489127 3.6917755e-39
-3.9291022 18.003759 1.4506067 1.2173779e-38
-3.9311919 18.003809 1.448693 8.0249757e-39
-3.939074 18.006506 1.446916 4.427537e-39
-3.9370697 18.006626 1.4468347 3.967998e-39
-3.9291933 18.003929 1.4486122 1.2265975e-38
-3.9391654 18.006678 1.4449158 4.4275314e-39
-3.9414589 18.003725 1.4431144 4.6126289e-39
-3.937161 18.006798 1.4448346 3.9683539e-39
-3.9394603 18.003843 1.4430335 3.8757842e-39
-3.9413524 18.006901 1.4409965 4.7973761e-39
-3.9735141 18.005152 1.4402958 7.467846e-39
-3.939348 18.007021 1.4409152 4.060174e-39
-3.9414437 18.007072 1.4389964 4.9817674e-39
-3.9373436 18.007141 1.4408342 3.5999231e-39
-3.9394393 18.007193 1.4389151 4.2445653e-39
-3.9736054 18.005323 1.4382956 7.467846e-39
-3.9413369 18.010267 1.4368608 5.0736071e-39
-3.9374349 18.007313 1.438834 3.7839585e-39
-3.9393268 18.010387 1.4367794 4.5211536e-39
-3.9412293 18.013481 1.4347132 5.0736113e-39
-3.9373167 18.010508 1.4366978 4.0605454e-39
-3.9394183 18.010559 1.4347736 4.6129933e-39
-3.9353068 18.010628 1.4366165 3.8761695e-39
-3.9374084 18.010681 1.4346921 4.1527424e-39
-3.9413214 18.013653 1.4327017 4.9810597e-39
-3.9393055 18.013773 1.43262 4.5208004e-39
-3.9353983 18.010801 1.4346106 3.8761723e-39
-3.9372897 18.013895 1.4325384 4.0605496e-39
-3.9412134 18.016886 1.4305362 4.7966713e-39
-3.9389162 18.021112 1.4302472 4.4286076e-39
-3.9338362 18.034279 1.43147 3.7836208e-39
-3.936681 18.02422 1.4300143 3.967998e-39
-3.9314823 18.038525 1.4311857 3.6910734e-39
-3.9341452 18.031414 1.4295745 3.6914251e-39
-3.9294207 18.038649 1.4311023 6.9179233e-39
-3.9320972 18.031536 1.4294914 3.5066821e-39
-3.9410379 18.021166 1.4283044 4.7041183e-39
-3.9390087 18.021286 1.4282222 4.3360547e-39
-3.9367738 18.024395 1.4279838 3.8758052e-39
-3.9342387 18.03159 1.4275305 3.5992323e-39
-3.9300492 18.031658 1.4294083 6.8257276e-39
-3.9321907 18.031712 1.4274477 3.4144893e-39
-3.9391012 18.02146 1.4261973 4.4282531e-39
-3.9368665 18.024569 1.4259533 4.0601964e-39
-3.9348319 18.024691 1.4258707 3.7836236e-39
-3.9301426 18.031834 1.4273645 6.6413392e-39
-3.9322839 18.031887 1.4254037 3.6910762e-39
-3.9371645 18.021755 1.4240901 4.0601978e-39
-3.9351354 18.021877 1.4240079 3.783625e-39
-3.939286 18.021807 1.4221473 4.4282559e-39
-3.9372568 18.021929 1.4220653 3.9680022e-39
-3.9396524 18.01787 1.4203678 4.4282559e-39
-3.9352276 18.022051 1.4219829 3.6914293e-39
-3.9376309 18.017992 1.4202858 3.8758066e-39
-3.9397445 18.018044 1.4183506 4.4282559e-39
-3.9377232 18.018166 1.4182686 3.8758066e-39
-3.9398367 18.018217 1.4163332 4.4282559e-39
-3.9378152 18.018337 1.4162513 3.9680022e-39
-3.9399288 18.018389 1.4143161 4.4282531e-39
-3.9379072 18.018511 1.414234 4.0601978e-39
-3.9406264 18.009422 1.4129125 4.5197327e-39
-3.9393167 17.999344 1.4135166 4.2435101e-39
-3.9405174 18.012623 1.4107031 4.9781983e-39
-3.9373314 17.999464 1.4134362 3.8751003e-39
-3.9385073 18.012745 1.4106216 4.6097815e-39
-3.9404075 18.015844 1.4084814 5.1615133e-39
-3.937422 17.999634 1.411455 4.2413647e-39
-3.9383917 18.015965 1.4083997 4.7934539e-39
-3.9402971 18.019081 1.4062469 5.0693177e-39
-3.9382756 18.019203 1.406165 4.7012583e-39
-3.9403892 18.019255 1.4042295 4.9771221e-39
-3.9383678 18.019375 1.4041476 4.6090626e-39
-3.9384599 18.019548 1.4021305 4.7012583e-39
-3.9405735 18.0196 1.400195 5.1615133e-39
-3.9385519 18.019722 1.4001132 4.7938098e-39
-3.9403956 18.023891 1.3978479 5.0693177e-39
-3.9615421 18.00658 1.3979679 6.7291908e-39
-3.9595435 18.006701 1.3978871 6.4526011e-39
-3.9575446 18.006821 1.397806 6.0838186e-39
-3.9553878 18.009954 1.3974793 5.715036e-39
-3.9533834 18.010075 1.3973981 5.4384491e-39
-3.9513791 18.010193 1.3973168 5.3462535e-39
-3.9491987 18.013346 1.396988 5.1629441e-39
-3.9470057 18.016516 1.3966571 5.439531e-39
-3.9448006 18.019705 1.3963243 5.622846e-39
-3.9427791 18.019825 1.3962424 5.1615105e-39
-3.9383662 18.024012 1.3977656 4.7016142e-39
-3.9404879 18.024065 1.395823 4.7927308e-39
-3.9448926 18.019876 1.394307 5.6224887e-39
-3.9428713 18.019999 1.3942251 5.5302931e-39
-3.9384587 18.024185 1.3957407 4.3328317e-39
-3.9405804 18.024239 1.393798 5.1615133e-39
-3.9451737 18.016981 1.3925523 5.6224887e-39
-3.9429634 18.020172 1.3922079 5.5302931e-39
-3.9385512 18.024359 1.3937157 4.5172229e-39
-3.9778054 18.006136 1.3926321 7.3738553e-39
-3.9476442 18.010948 1.3911538 5.3469808e-39
-3.9454532 18.014103 1.3908075 5.7146843e-39
-3.9778965 18.006308 1.3906376 7.2816625e-39
-3.9473732 18.017206 1.388611 5.5313721e-39
-3.9779875 18.006479 1.388643 7.3731407e-39
-3.9453573 18.017326 1.3885293 5.7146843e-39
-3.9474649 18.017378 1.3865993 5.6235677e-39
-3.9780786 18.006649 1.3866484 7.280945e-39
-3.9454494 18.0175 1.3865176 5.8068799e-39
-3.947557 18.017551 1.3845878 5.7157633e-39
-3.9434335 18.01762 1.386436 5.5302931e-39
-3.9455411 18.017672 1.384506 5.8068799e-39
-3.9782979 18.002718 1.3850386 7.1883935e-39
-3.9741721 18.007059 1.3844918 7.4653363e-39
-3.9621797 18.007778 1.3840059 6.7284859e-39
-3.9600358 18.010914 1.3836403 6.6366462e-39
-3.9580314 18.011034 1.3835591 6.5444506e-39
-3.956027 18.011154 1.3834778 6.3600593e-39
-3.9540226 18.011274 1.3833967 6.1756681e-39
-3.9520183 18.011395 1.3833154 5.991274e-39
-3.9498396 18.014549 1.3829467 5.7157661e-39
-3.9478295 18.014669 1.3828653 5.7157661e-39
-3.9433317 18.020863 1.3841389 5.4380974e-39
-3.9456329 18.017843 1.3824944 5.8068799e-39
-3.9410427 18.025106 1.3836733 4.9771193e-39
-3.9434237 18.021036 1.3821216 5.5302931e-39
-3.9390135 18.025227 1.3835909 4.4250245e-39
-3.9411352 18.02528 1.3816483 5.0693149e-39
-3.9783885 18.002888 1.3830515 7.1883935e-39
-3.9742632 18.007231 1.3824973 7.4653363e-39
-3.9479213 18.014843 1.3808595 5.7157633e-39
-3.9457247 18.018017 1.380483 5.6235663e-39
-3.943516 18.02121 1.3801043 5.5306504e-39
-3.938906 18.028399 1.3812813 4.6094158e-39
-3.9412274 18.025454 1.3796233 5.2540635e-39
-3.9368713 18.028521 1.3811989 4.3335477e-39
-3.9389987 18.028572 1.3792508 4.7938056e-39
-3.9784794 18.003059 1.3810645 7.005077e-39
-3.9744973 18.003296 1.3809031 7.281308e-39
-3.9478323 18.018068 1.378553 5.6242823e-39
-3.9458165 18.018188 1.3784714 5.5317238e-39
-3.943608 18.021381 1.378087 5.2551369e-39
-3.9413199 18.025627 1.3775983 5.1618623e-39
-3.9369638 18.028694 1.3791683 4.6101332e-39
-3.9390914 18.028748 1.3772203 4.7941587e-39
-3.97857 18.003229 1.3790777 6.7292104e-39
-3.9745879 18.003468 1.3789163 7.0979957e-39
-3.9479241 18.01824 1.3765415 5.8093897e-39
-3.9459085 18.018362 1.3764598 5.716115e-39
-3.9437001 18.021555 1.3760697 5.3473297e-39
-3.9414124 18.025801 1.3755735 5.1622182e-39
-3.9370565 18.028868 1.3771378 4.6101304e-39
-3.9391842 18.028921 1.3751897 4.7019603e-39
-3.9786608 18.003399 1.3770908 6.6370148e-39
-3.9746785 18.003637 1.3769295 7.0979957e-39
-3.9480162 18.018414 1.37453 5.9937809e-39
-3.9460003 18.018534 1.3744483 5.9005063e-39
-3.9437921 18.021729 1.3740525 5.4395253e-39
-3.9413116 18.028973 1.3732415 5.1622182e-39
-3.9371493 18.029043 1.3751073 4.3335435e-39
-3.9392769 18.029095 1.3731592 4.517569e-39
-3.9787514 18.003571 1.3751038 6.5448191e-39
-3.9747694 18.003807 1.3749425 7.0058001e-39
-3.937242 18.029217 1.3730768 4.1491523e-39
-3.9393694 18.029268 1.3711286 4.517569e-39
-3.9786232 18.010862 1.37237 6.4529808e-39
-3.9747183 18.008085 1.3725244 7.0979929e-39
-3.9366431 18.039551 1.3699865 4.0569566e-39
-3.9389925 18.036549 1.3683445 4.7019603e-39
-3.9345894 18.039675 1.3699034 3.5974204e-39
-3.9367368 18.039726 1.3679372 4.2413479e-39
-3.978807 18.008017 1.3706918 6.4529808e-39
-3.9748094 18.008257 1.3705298 7.1905459e-39
-3.9393556 18.032635 1.3667419 4.8863544e-39
-3.9346831 18.03985 1.3678538 3.7818117e-39
-3.9373152 18.032757 1.3666593 4.4257392e-39
-3.978898 18.008188 1.3686972 6.4529808e-39
-3.9768994 18.008308 1.3686162 7.0061546e-39
-3.9749005 18.008429 1.3685352 7.4660538e-39
-3.9389777 18.039955 1.3639214 4.8863544e-39
-3.9347765 18.040026 1.3658044 3.9662029e-39
-3.936924 18.040079 1.3638383 4.5179348e-39
-3.9768927 18.011497 1.3662882 7.0983474e-39
-3.9749916 18.008598 1.3665407 7.466051e-39
-3.9392724 18.037073 1.3622134 4.8863544e-39
-3.976984 18.011669 1.3642881 7.2816597e-39
-3.9749796 18.011789 1.3642068 7.2816597e-39
-3.9372244 18.037197 1.3621303 4.5179348e-39
-3.9398329 18.03014 1.360976 4.5175719e-39
-3.9769778 18.014877 1.3619413 7.2820156e-39
-3.9751737 18.008942 1.3625515 7.2820156e-39
-3.9377983 18.030262 1.3608935 4.0569566e-39
-3.9403939 18.02318 1.3597676 4.5175747e-39
-3.9752648 18.009111 1.3605567 7.3734924e-39
-3.9380937 18.027433 1.3592092 4.1491551e-39
-3.9408882 18.017216 1.3584692 4.6097703e-39
-3.9360645 18.027554 1.3591272 3.6896175e-39
-3.9388783 18.017336 1.3583878 4.1491551e-39
-3.9753559 18.009283 1.3585624 7.281294e-39
-3.936157 18.027727 1.3571022 3.7818159e-39
-3.9387639 18.020569 1.3560175 4.2413507e-39
-3.9754469 18.009455 1.3565679 7.1890983e-39
-3.936748 18.020689 1.3559358 3.8740115e-39
-3.9388556 18.020741 1.3540059 4.3335463e-39
-3.9411631 18.017731 1.3524516 4.7019659e-39
-3.9368398 18.020863 1.3539243 3.9662071e-39
-3.9389474 18.020914 1.3519945 4.4257434e-39
-3.9412546 18.017902 1.3504457 4.7941615e-39
-3.9367192 18.024115 1.3515348 3.9662071e-39
-3.9390392 18.021086 1.3499831 4.4257434e-39
-3.9346979 18.024235 1.3514528 3.0446138e-39
-3.9368114 18.024288 1.3495175 4.0584028e-39
-3.9411469 18.021137 1.3480529 4.9774766e-39
-3.939131 18.021259 1.3479714 4.4257434e-39
-3.9347899 18.024408 1.3494356 2.8602253e-39
-3.9369035 18.02446 1.3475002 4.2417178e-39
-3.9392231 18.021431 1.3459598 4.6083396e-39
-3.9348819 18.024582 1.3474182 2.7676738e-39
-3.9369955 18.024633 1.3454829 4.0566105e-39
-3.9328606 18.024702 1.3473363 2.307776e-39
-3.9346824 18.028891 1.3448701 2.9513476e-39
-3.9370878 18.024807 1.3434657 4.1480901e-39
-3.9326532 18.029013 1.344788 2.9520692e-39
-3.9350662 18.024927 1.3433837 3.042467e-39
-3.9371798 18.024979 1.3414484 3.9644149e-39
-3.9327457 18.029186 1.3427629 2.8595177e-39
-3.9351583 18.025101 1.3413665 2.8591519e-39
-3.9331367 18.025221 1.3412845 2.767678e-39
-3.935467 18.02219 1.3397617 2.9513476e-39
-3.9375746 18.022242 1.3378319 3.9651281e-39
-3.933229 18.025394 1.3392674 2.584007e-39
-3.9355588 18.022362 1.3377502 3.0442607e-39
-3.9376664 18.022413 1.3358204 4.1495194e-39
-3.9356506 18.022535 1.3357387 3.2290078e-39
-3.9377582 18.022587 1.3338088 4.0584e-39
-3.9543011 18.015682 1.3333102 5.9015881e-39
-3.9522967 18.015802 1.3332292 5.6260774e-39
-3.9502923 18.015921 1.3331479 5.5346006e-39
-3.948288 18.016041 1.3330667 5.71755e-39
-3.9462836 18.016161 1.3329854 5.5331573e-39
-3.9438972 18.022398 1.3320423 5.4395253e-39
-3.9420788 18.019451 1.3323929 4.9792689e-39
-3.9400687 18.019571 1.3323116 4.6101304e-39
-3.9357424 18.022707 1.3337271 2.9534972e-39
-3.93785 18.022758 1.3317972 4.1505956e-39
-3.9337268 18.022827 1.3336453 2.4928819e-39
-3.9358342 18.022881 1.3317156 2.8613015e-39
-3.931711 18.022949 1.3335637 6.8267982e-39
-3.9338186 18.023001 1.3316338 2.3092095e-39
-3.9361401 18.019983 1.3301429 2.6769075e-39
-3.9318027 18.023121 1.3315521 6.642407e-39
-3.9339104 18.023172 1.3296224 2.7701849e-39
-3.9362319 18.020155 1.3281368 2.6769075e-39
-3.9318945 18.023294 1.3295407 6.181426e-39
-3.9342217 18.020277 1.3280555 2.7698248e-39
-3.9383333 18.020206 1.3262126 4.1498739e-39
-3.9363234 18.020329 1.3261311 2.9524154e-39
-3.9322116 18.020397 1.3279741 6.0892304e-39
-3.9343133 18.020449 1.3260497 2.8620204e-39
-3.9384248 18.02038 1.3242067 4.1498739e-39
-3.936415 18.0205 1.3241252 3.044611e-39
-3.9323032 18.020569 1.3259681 5.9970347e-39
-3.9344049 18.02062 1.3240438 2.9534972e-39
-3.9385166 18.020552 1.3222008 4.2413521e-39
-3.9365065 18.020672 1.3221192 3.0442508e-39
-3.9386082 18.020723 1.320195 4.2413521e-39
-3.9344964 18.020792 1.3220379 2.7691059e-39
-3.9365981 18.020844 1.3201134 2.9520552e-39
-3.938493 18.023966 1.3177165 4.3328289e-39
-3.9364772 18.024088 1.3176348 3.4119544e-39
-3.9531186 18.017345 1.315227 5.9927159e-39
-3.9509432 18.020517 1.314666 5.9927159e-39
-3.9489331 18.020638 1.3145846 5.9927131e-39
-3.9465551 18.026917 1.3135343 6.0845486e-39
-3.9445336 18.027037 1.3134521 5.9001546e-39
-3.942512 18.027159 1.3133702 5.5313749e-39
-3.9402199 18.031425 1.3126354 4.7941728e-39
-3.9360693 18.031494 1.3144959 3.8729353e-39
-3.9379883 18.034561 1.3120782 4.3335575e-39
-3.9359536 18.034683 1.3119956 3.5959967e-39
-3.9401159 18.034613 1.31013 4.702696e-39
-3.9378779 18.037767 1.3095644 4.3335603e-39
-3.9358373 18.037889 1.3094817 3.5956408e-39
-3.9402084 18.034788 1.3080994 4.702696e-39
-3.9379706 18.037941 1.3075283 4.3335575e-39
-3.9354362 18.045244 1.3062873 3.6881923e-39
-3.940767 18.027798 1.3072366 4.7026932e-39
-3.938468 18.032068 1.3064783 4.4261091e-39
-3.9333825 18.045368 1.3062041 3.4112495e-39
-3.9364388 18.032188 1.3063961 3.8725822e-39
-3.9315515 18.042418 1.3066169 4.5186761e-39
-3.933476 18.045544 1.3041548 3.4116054e-39
-3.9295034 18.04254 1.3065339 9.4972373e-39
-3.9316449 18.042593 1.3045731 4.2420864e-39
-3.9776325 18.013557 1.3086977 7.2830918e-39
-3.9388375 18.028091 1.3051375 4.4261063e-39
-3.936816 18.028214 1.3050555 4.0569707e-39
-3.9347944 18.028334 1.3049735 3.411604e-39
-3.9295969 18.042715 1.3044901 9.2206504e-39
-3.933219 18.022289 1.3059094 4.0580525e-39
-3.9777234 18.013729 1.3067032 7.2830918e-39
-3.9391358 18.025173 1.3036355 4.4261035e-39
-3.9373307 18.022219 1.3040667 4.1495222e-39
-3.9353206 18.022341 1.3039851 3.3194056e-39
-3.9312088 18.022409 1.3058281 9.0366165e-39
-3.9333105 18.022461 1.3039036 3.8736612e-39
-3.9778144 18.013901 1.3047087 7.2830918e-39
-3.9394324 18.022272 1.3021421 4.4264608e-39
-3.9374223 18.022392 1.3020607 3.9651281e-39
-3.9354122 18.022512 1.3019793 3.0431747e-39
-3.9313004 18.022581 1.3038222 8.944418e-39
-3.9334021 18.022633 1.3018978 3.5970715e-39
-3.9779055 18.014071 1.302714 7.4664041e-39
-3.9760439 18.010059 1.3033324 7.0990607e-39
-3.9415338 18.022324 1.3002179 4.7952377e-39
-3.9395239 18.022444 1.3001363 4.426458e-39
-3.9375138 18.022564 1.3000549 3.8729325e-39
-3.935288 18.025761 1.2994491 2.8587834e-39
-3.9313922 18.022753 1.3018165 8.7600268e-39
-3.9334936 18.022804 1.2998919 3.4126802e-39
-3.9781256 18.010111 1.3014263 7.3742057e-39
-3.9761345 18.010229 1.3013456 7.0986978e-39
-3.941823 18.019436 1.2987382 4.8877893e-39
-3.9398184 18.019556 1.2986571 4.7952377e-39
-3.937814 18.019676 1.2985758 3.8729297e-39
-3.9358096 18.019796 1.2984947 2.8587806e-39
-3.9314837 18.022924 1.2998106 8.5756355e-39
-3.9338052 18.019917 1.2984133 3.5048731e-39
-3.9782164 18.010281 1.2994393 7.3742057e-39
-3.9762254 18.010401 1.2993588 7.0986978e-39
-3.9419143 18.019608 1.2967379 4.703398e-39
-3.9399097 18.019728 1.2966567 4.5186509e-39
-3.9379053 18.019848 1.2965757 4.1498739e-39
-3.9359009 18.019968 1.2964944 3.1353675e-39
-3.9318008 18.020037 1.2983321 7.8380705e-39
-3.9338965 18.020088 1.2964131 3.8736556e-39
-3.978307 18.010452 1.2974526 7.3742057e-39
-3.9764183 18.007463 1.297915 7.0986978e-39
-3.9420056 18.019779 1.2947378 4.5190068e-39
-3.940001 18.019899 1.2946565 4.3342596e-39
-3.9379966 18.02002 1.2945752 3.873287e-39
-3.9359922 18.02014 1.2944942 3.0431718e-39
-3.9318922 18.020208 1.2963319 8.0224617e-39
-3.9339879 18.02026 1.294413 3.6892643e-39
-3.9783978 18.010622 1.2954656 7.3742057e-39
-3.9765086 18.007633 1.2959337 7.0986978e-39
-3.9420969 18.019951 1.2927374 4.703398e-39
-3.9400926 18.020071 1.2926563 4.4264552e-39
-3.9380879 18.020191 1.292575 3.7810914e-39
-3.9360836 18.020311 1.2924938 3.1353675e-39
-3.9319835 18.02038 1.2943317 7.7458748e-39
-3.9340792 18.020432 1.2924125 3.5970687e-39
-3.9784884 18.010792 1.2934787 7.374563e-39
-3.9765992 18.007803 1.2939526 7.190892e-39
-3.9419918 18.023182 1.2901884 4.9799849e-39
-3.9401839 18.020243 1.2906562 4.6108465e-39
-3.9381795 18.020363 1.2905749 4.2420696e-39
-3.9361749 18.020483 1.2904937 3.5963456e-39
-3.9786749 18.007854 1.2920518 7.4660397e-39
-3.9766896 18.007975 1.2919713 7.190892e-39
-3.9564657 18.016413 1.2898556 5.6257243e-39
-3.9544671 18.016533 1.2897747 5.8090379e-39
-3.9523015 18.019695 1.2891434 5.8086764e-39
-3.9502971 18.019814 1.2890621 5.716478e-39
-3.9481137 18.022993 1.2884269 5.8090267e-39
-3.9461036 18.023113 1.2883453 5.901221e-39
-3.9440935 18.023233 1.288264 5.6246341e-39
-3.9420834 18.023355 1.2881825 5.0721806e-39
-3.9402752 18.020414 1.288656 4.7030421e-39
-3.9382708 18.020535 1.2885748 4.2420696e-39
-3.9341707 18.020603 1.2904125 3.8736584e-39
-3.9362664 18.020655 1.2884935 3.6885413e-39
-3.9787652 18.008024 1.2900707 7.4660397e-39
-3.976877 18.005163 1.2905331 7.190892e-39
-3.9423709 18.020466 1.2867371 4.9799849e-39
-3.9405668 18.017542 1.2872131 4.5186509e-39
-3.9385681 18.017662 1.2871323 4.2420696e-39
-3.9342618 18.020775 1.2884123 3.7814628e-39
-3.9363577 18.020826 1.2864934 3.6885413e-39
-3.9789469 18.005215 1.2886375 7.3742057e-39
-3.9769673 18.005333 1.2885573 7.0994166e-39
-3.9424622 18.020638 1.2847368 4.887069e-39
-3.9409301 18.013569 1.285985 4.3338953e-39
-3.9389391 18.013687 1.2859042 4.702682e-39
-3.9343534 18.020947 1.2864122 3.5048759e-39
-3.9790373 18.005384 1.286662 7.1905403e-39
-3.9770575 18.005503 1.2865818 7.0075867e-39
-3.9425535 18.020809 1.2827365 5.2547627e-39
-3.9405491 18.020929 1.2826552 4.7948636e-39
-3.9771476 18.005672 1.2846062 7.0072308e-39
-3.9424498 18.024042 1.2801592 5.346957e-39
-3.9390299 18.013857 1.2839174 4.4257251e-39
-3.9404397 18.024162 1.2800778 5.070726e-39
-3.9772379 18.00584 1.2826304 7.0075867e-39
-3.9633794 18.00667 1.2820688 6.6366406e-39
-3.9612594 18.009773 1.281422 6.2696546e-39
-3.9592741 18.009893 1.2813417 6.0859822e-39
-3.9571309 18.013126 1.2806696 5.9937837e-39
-3.9551399 18.013245 1.2805889 6.0848976e-39
-3.9529235 18.017508 1.2797208 6.176017e-39
-3.9509246 18.017628 1.2796398 6.1760198e-39
-3.9485714 18.023853 1.2783978 6.0838242e-39
-3.9465613 18.023973 1.2783163 5.9916257e-39
-3.9445512 18.024094 1.2782348 5.7153906e-39
-3.9427361 18.021152 1.2787361 5.3469584e-39
-3.9772322 18.008993 1.2800844 7.0075867e-39
-3.944643 18.024267 1.2762289 5.7153906e-39
-3.9407318 18.021271 1.2786548 5.070726e-39
-3.9428275 18.021324 1.276736 5.3469584e-39
-3.9773228 18.009163 1.2781032 7.0075839e-39
-3.9467447 18.024319 1.2743044 5.8994329e-39
-3.9447346 18.024439 1.274223 5.6231963e-39
-3.9408231 18.021442 1.2766548 5.0703701e-39
-3.942816 18.024731 1.2721356 5.3469612e-39
-3.9775941 18.009672 1.2721597 7.0994152e-39
-3.9431014 18.021837 1.2707353 5.4398799e-39
-3.941097 18.021957 1.2706542 5.1632902e-39
-3.9429991 18.025074 1.268124 5.6242711e-39
-3.9776845 18.009842 1.2701786 7.0994152e-39
-3.9411883 18.022129 1.2686539 5.3476814e-39
-3.9430907 18.025246 1.266118 5.2554914e-39
-3.9410808 18.025368 1.2660367 4.9789017e-39
-3.9429882 18.028502 1.263486 5.4395253e-39
-3.9411724 18.025539 1.2640306 5.1632958e-39
-3.9430799 18.028675 1.2614745 5.5317238e-39
-3.9410644 18.028795 1.2613928 5.2551341e-39
-3.9433656 18.025763 1.2601004 5.5317238e-39
-3.9413555 18.025883 1.2600191 5.255853e-39
-3.9434571 18.025934 1.2580947 5.3476955e-39
-3.960269 18.011761 1.2595488 6.3614844e-39
-3.9581287 18.014999 1.2588135 6.2700077e-39
-3.955924 18.01927 1.2578614 6.269656e-39
-3.9539251 18.019388 1.2577804 6.0849116e-39
-3.9517581 18.022558 1.2570589 5.9001686e-39
-3.9495788 18.025745 1.2563331 5.807973e-39
-3.9475687 18.025866 1.2562517 5.8998071e-39
-3.9455588 18.025986 1.2561703 5.7154102e-39
-3.9416449 18.022987 1.2586528 5.1636601e-39
-3.9435487 18.026106 1.2560889 5.3476983e-39
-3.9396405 18.023106 1.2585716 4.887439e-39
-3.9417362 18.023159 1.2566527 5.1633042e-39
-3.9436402 18.026278 1.2540829 5.5320895e-39
-3.9397318 18.023277 1.2565715 4.7952433e-39
-3.9418275 18.023329 1.2546525 5.3476955e-39
-3.9377275 18.023397 1.2564902 4.0580497e-39
-3.9398232 18.023449 1.2545712 4.7026904e-39
-3.9439232 18.02338 1.2527335 5.7157633e-39
-3.9421148 18.020449 1.2533053 5.5320895e-39
-3.9378188 18.023569 1.25449 3.965854e-39
-3.9401159 18.020569 1.2532243 4.79417e-39
-3.9765208 18.008331 1.2548912 7.0994166e-39
-3.9438233 18.026623 1.2500713 5.7146899e-39
-3.9420102 18.023672 1.2506521 5.4388233e-39
-3.9766109 18.008501 1.2529156 7.0994152e-39
-3.9439149 18.026794 1.2480652 5.5299427e-39
-3.9400058 18.023792 1.2505709 4.9785668e-39
-3.9421015 18.023844 1.2486519 5.2544348e-39
-3.9438148 18.030054 1.2453822 5.4377471e-39
-3.9400971 18.023964 1.2485706 4.9782123e-39
-3.9421928 18.024015 1.2466516 5.0700436e-39
-3.9437141 18.033333 1.2426838 5.4388261e-39
-3.9401884 18.024136 1.2465703 4.8860167e-39
-3.9416926 18.033453 1.242602 5.1629581e-39
-3.9439986 18.030399 1.241359 5.715413e-39
-3.9402797 18.024307 1.2445703 4.7945399e-39
-3.9419827 18.030519 1.2412773 5.5317406e-39
-3.9442813 18.027483 1.2400417 5.7161319e-39
-3.9424667 18.02453 1.240651 5.4399079e-39
-3.9443729 18.027655 1.2380359 5.439545e-39
-3.9404624 18.024651 1.2405697 4.6108689e-39
-3.9423628 18.027775 1.2379545 5.163321e-39
-3.9444644 18.027826 1.2360301 4.9789269e-39
-3.9403527 18.027895 1.2378728 4.6108689e-39
-3.9424543 18.027946 1.2359487 4.6112262e-39
-3.9791317 18.01256 1.2384799 7.1908934e-39
-3.9447451 18.024925 1.2347316 5.5321007e-39
-3.9404442 18.028067 1.235867 4.6108689e-39
-3.9427407 18.025045 1.2346503 5.2565956e-39
-3.9450243 18.022039 1.2334404 5.6235803e-39
-3.9430254 18.02216 1.2333593 5.4399079e-39
-3.9449277 18.025267 1.2307312 5.6235803e-39
-3.9429233 18.025387 1.2306501 5.4399079e-39
-3.945019 18.025438 1.2287312 5.7154158e-39
-3.9430146 18.025558 1.2286497 5.5313847e-39
-3.9452975 18.022552 1.2274566 5.7154158e-39
-3.947206 18.025661 1.2248119 5.9912768e-39
-3.9432986 18.022673 1.2273759 5.5313847e-39
-3.9452016 18.025782 1.2247305 5.8987281e-39
-3.9433897 18.022842 1.225381 5.6232202e-39
-3.9452929 18.025953 1.2227304 5.8987281e-39
-3.9642422 18.008778 1.2234741 6.4536829e-39
-3.9622684 18.008896 1.2233942 6.2692916e-39
-3.9602942 18.009014 1.2233143 5.9930649e-39
-3.9581661 18.012226 1.2224786 6.2689399e-39
-3.9560316 18.015345 1.2216651 6.268584e-39
-3.9540462 18.015465 1.2215847 6.1763883e-39
-3.9516578 18.022877 1.2197213 6.0841927e-39
-3.9494843 18.026056 1.2188925 6.1753121e-39
-3.9453843 18.026125 1.2207302 5.8987252e-39
-3.94748 18.026176 1.2188113 5.8076086e-39
-3.9433799 18.026245 1.2206489 5.6232202e-39
-3.9454756 18.026297 1.21873 5.6232174e-39
-3.9413755 18.026365 1.2205677 5.1626021e-39
-3.9432786 18.029493 1.2178957 5.439545e-39
-3.9391668 18.029564 1.2197388 5.0711254e-39
-3.9412684 18.029613 1.2178143 5.439545e-39
-3.9371567 18.029684 1.2196573 3.5045213e-39
-3.9390533 18.032831 1.2169752 4.7023401e-39
-3.9351468 18.029804 1.2195759 3.3204874e-39
-3.9372485 18.029856 1.2176515 4.2424437e-39
-3.94136 18.029787 1.2158085 5.0711226e-39
-3.9391451 18.033003 1.2149637 4.4257532e-39
-3.9352384 18.029976 1.2175701 3.7814628e-39
-3.9371293 18.033123 1.2148821 3.965854e-39
-3.9332283 18.030096 1.2174885 6.179268e-39
-3.935545 18.027067 1.2163235 3.4126802e-39
-3.9416494 18.02688 1.2145672 4.9789269e-39
-3.9394414 18.030079 1.2137213 4.4257532e-39
-3.9374316 18.030199 1.2136397 3.965854e-39
-3.9335406 18.027187 1.2162423 5.8104855e-39
-3.9352055 18.033417 1.2127889 3.228289e-39
-3.9331896 18.033537 1.2127073 5.5338986e-39
-3.9415431 18.03013 1.2117969 5.1633182e-39
-3.9395332 18.030251 1.2117155 4.7023401e-39
-3.9373128 18.033468 1.2108591 4.2424409e-39
-3.9352973 18.03359 1.2107773 3.3204846e-39
-3.9332814 18.03371 1.2106956 5.5338986e-39
-3.9418321 18.027222 1.2105666 5.2555138e-39
-3.9398277 18.027342 1.2104855 4.9789269e-39
-3.9374049 18.033642 1.2088475 4.3346393e-39
-3.935389 18.033762 1.2087657 3.2282918e-39
-3.9419234 18.027393 1.2085664 5.0711226e-39
-3.9397163 18.030596 1.2077036 4.8867313e-39
-3.9372859 18.03693 1.2060452 4.2424437e-39
-3.941818 18.030647 1.2057793 4.9789269e-39
-3.9396043 18.033865 1.204906 4.8867313e-39
-3.9352643 18.037052 1.2059634 2.9517049e-39
-3.9375885 18.033987 1.2048244 4.2424437e-39
-3.942106 18.027737 1.2045662 5.0711226e-39
-3.9398994 18.030939 1.2036918 4.9789269e-39
-3.9353564 18.037224 1.203946 2.7673136e-39
-3.9378893 18.031059 1.2036105 4.3346393e-39
-3.9421973 18.027908 1.2025658 5.163321e-39
-3.9401929 18.028028 1.2024846 5.0711254e-39
-3.9424837 18.025015 1.2013651 5.2555166e-39
-3.9379809 18.031231 1.2016046 4.426835e-39
-3.940485 18.025135 1.2012843 5.163321e-39
-3.9443843 18.028131 1.1986467 5.5317406e-39
-3.94238 18.028252 1.1985655 5.3477123e-39
-3.9440949 18.034487 1.1950116 5.6239334e-39
-3.9405761 18.025305 1.1992894 5.2555166e-39
-3.9420791 18.034607 1.1949298 5.3477123e-39
-3.9443774 18.031557 1.1938255 5.7161291e-39
-3.9790459 18.016247 1.1967949 7.2827415e-39
-3.9425626 18.028595 1.1945651 5.2555166e-39
-3.944469 18.031731 1.1918197 5.8083247e-39
-3.9405582 18.028715 1.1944839 5.163321e-39
-3.9426539 18.028767 1.1925648 5.2555166e-39
-3.9791362 18.016417 1.1948137 7.1905459e-39
-3.9465706 18.031782 1.1898954 5.9005203e-39
-3.9447496 18.028818 1.1906458 5.8083247e-39
-3.9413249 18.018505 1.1952666 5.163321e-39
-3.942939 18.025869 1.1913923 5.2555166e-39
-3.9412115 18.021812 1.1924382 5.3477123e-39
-3.9792268 18.016586 1.1928325 7.0983474e-39
-3.9593737 18.017775 1.1920282 5.9005091e-39
-3.9572308 18.02103 1.1910967 5.9927047e-39
-3.9552398 18.021149 1.1910162 5.9923488e-39
-3.9530237 18.025442 1.1898025 6.0845444e-39
-3.9508541 18.028629 1.1888893 6.0845458e-39
-3.9486723 18.031834 1.1879708 5.992353e-39
-3.9466622 18.031954 1.1878893 5.992353e-39
-3.9446521 18.032074 1.187808 5.9005203e-39
-3.9428365 18.029108 1.1885644 5.5317406e-39
-3.9410312 18.026161 1.1893166 5.5317406e-39
-3.9794071 18.013752 1.1916707 7.1908962e-39
-3.9467537 18.032125 1.1858835 5.8079617e-39
-3.9447436 18.032246 1.1858021 5.991274e-39
-3.9429278 18.02928 1.1865641 6.1756653e-39
-3.9393113 18.022102 1.1903706 4.8867341e-39
-3.9409235 18.0294 1.186483 5.6224915e-39
-3.9370337 18.0264 1.1891547 3.5970743e-39
-3.9389191 18.02952 1.1864017 4.9778451e-39
-3.935035 18.02652 1.1890736 3.3208489e-39
-3.9369147 18.02964 1.1863205 4.1488061e-39
-3.9356403 18.019371 1.1890815 4.3349995e-39
-3.9794075 18.016926 1.1888702 7.6507953e-39
-3.9468453 18.032297 1.1838777 5.991274e-39
-3.9448354 18.032417 1.1837962 5.9912712e-39
-3.9430192 18.029451 1.1845641 6.0831067e-39
-3.9412134 18.026503 1.1853274 5.898714e-39
-3.9392147 18.026623 1.1852465 5.4380974e-39
-3.9377162 18.019421 1.1871809 4.4246714e-39
-3.9357309 18.019541 1.1871004 4.2424437e-39
-3.9794981 18.017096 1.1868891 7.5585997e-39
-3.9469368 18.032469 1.1818718 5.991274e-39
-3.944927 18.032589 1.1817904 5.9912712e-39
-3.9431105 18.029623 1.1825638 5.8987154e-39
-3.9413044 18.026674 1.1833328 5.898714e-39
-3.9395833 18.022614 1.1844099 5.7146843e-39
-3.9380121 18.016579 1.1860344 4.6094186e-39
-3.9344163 18.010342 1.1895859 6.8257248e-39
-3.9364743 18.010391 1.1877018 3.965854e-39
-3.9345059 18.010509 1.187622 6.4565794e-39
-3.9795885 18.017265 1.1849079 7.1898172e-39
-3.9452062 18.029675 1.180645 5.991274e-39
-3.9432018 18.029795 1.1805637 6.0820277e-39
-3.9416649 18.022665 1.1825036 5.8065184e-39
-3.9398823 18.019642 1.1832991 5.6221285e-39
-3.938314 18.013641 1.1849252 4.5172229e-39
-3.936564 18.010561 1.1857375 3.8736584e-39
-3.9796791 18.017435 1.1829268 6.9132303e-39
-3.9452977 18.029846 1.1786445 5.991274e-39
-3.9434853 18.026896 1.1794248 6.1742233e-39
-3.9417558 18.022835 1.1805167 5.5299315e-39
-3.9399729 18.019812 1.1813178 5.2533446e-39
-3.9381926 18.016918 1.1820831 4.3328289e-39
-3.9366536 18.010729 1.1837735 3.8736556e-39
-3.9455752 18.026947 1.1775111 5.991274e-39
-3.9435763 18.027067 1.1774302 6.266419e-39
-3.9420485 18.019863 1.1794171 5.7132438e-39
-3.9402626 18.016968 1.1801877 5.161149e-39
-3.938494 18.013979 1.1809852 4.2406318e-39
-3.9369576 18.007826 1.1826771 3.9651281e-39
-3.9456661 18.027119 1.1755167 5.9912768e-39
-3.9439282 18.023056 1.1766235 6.1742233e-39
-3.9421389 18.020033 1.1774359 5.897635e-39
-3.9403527 18.017138 1.178212 5.5299287e-39
-3.9385839 18.014149 1.1790154 4.4250231e-39
-3.937047 18.007994 1.1807188 3.6885413e-39
-3.9819357 18.017826 1.1770637 7.4664013e-39
-3.9460101 18.023108 1.1747173 6.0827536e-39
-3.9440191 18.023228 1.1746365 6.1742233e-39
-3.9422295 18.020203 1.1754547 6.0820263e-39
-3.940443 18.017307 1.1762364 6.0823822e-39
-3.9386737 18.014317 1.1770455 4.7930853e-39
-3.9371364 18.008162 1.1787602 3.5037871e-39
-3.9820261 18.017996 1.1750826 7.6507953e-39
-3.9800408 18.018114 1.1750021 7.3742113e-39
-3.9461007 18.023279 1.1727303 6.3593405e-39
-3.9441097 18.023397 1.1726497 5.9898321e-39
-3.942513 18.017359 1.174341 5.897635e-39
-3.9405332 18.017477 1.1742607 5.7135997e-39
-3.9387639 18.014486 1.1750753 5.2540635e-39
-3.9372258 18.008329 1.1768019 3.5959827e-39
-3.9821165 18.018166 1.1731014 7.6507953e-39
-3.9802189 18.015276 1.1738896 7.3742113e-39
-3.9543221 18.019829 1.1719751 6.2682322e-39
-3.9523368 18.019949 1.1718947 6.1760366e-39
-3.9503515 18.020067 1.1718142 6.0841983e-39
-3.9481826 18.023329 1.1708242 6.2671476e-39
-3.9461915 18.023449 1.1707433 6.1749492e-39
-3.9442005 18.023567 1.1706628 6.0813088e-39
-3.9426031 18.017529 1.1723653 5.8969162e-39
-3.9406233 18.017647 1.1722852 5.6214041e-39
-3.9388537 18.014654 1.1731055 5.2533418e-39
-3.9373152 18.008497 1.1748434 3.5030682e-39
-3.9822888 18.015327 1.1719941 7.6507953e-39
-3.980309 18.015446 1.1719139 7.3742113e-39
-3.9462821 18.023619 1.1687564 5.9905551e-39
-3.9444861 18.020594 1.1695918 6.1735045e-39
-3.9426932 18.017696 1.1703897 5.8969162e-39
-3.9407134 18.017815 1.1703095 5.6206852e-39
-3.9387338 18.017935 1.1702292 5.1611462e-39
-3.936754 18.018053 1.1701491 3.3186769e-39
-3.9823792 18.015495 1.1700184 7.6507953e-39
-3.9803994 18.015614 1.1699383 7.3742113e-39
-3.9386206 18.02112 1.1673691 5.2522656e-39
-3.9366353 18.021238 1.1672887 3.1342857e-39
-3.9404905 18.024317 1.1645404 5.6206852e-39
-3.9387112 18.02129 1.1653881 5.2522656e-39
-3.942306 18.028555 1.1613926 5.9887517e-39
-3.9403074 18.028675 1.1613115 5.7128808e-39
-3.9367259 18.021408 1.1653075 3.2254023e-39
-3.9423971 18.028727 1.159398 6.0809473e-39
-3.9403985 18.028845 1.1593169 5.8050765e-39
-3.9424882 18.028896 1.1574033 5.9891118e-39
-3.98283 18.016342 1.1601403 7.1912591e-39
-3.9808502 18.01646 1.1600602 7.4678488e-39
-3.9788704 18.016581 1.1599799 7.4678488e-39
-3.9768908 18.016699 1.1598996 7.2827415e-39
-3.9750166 18.01371 1.1607558 7.1905459e-39
-3.9730425 18.013828 1.1606758 7.3738581e-39
-3.9710684 18.013947 1.1605955 7.4656908e-39
-3.9690945 18.014065 1.1605155 7.5578865e-39
-3.9671204 18.014183 1.1604357 7.465688e-39
-3.9651463 18.014301 1.1603556 7.0976244e-39
-3.9631722 18.01442 1.1602758 6.9132303e-39
-3.9611981 18.014538 1.1601957 6.7284747e-39
-3.959224 18.014656 1.1601157 6.5440806e-39
-3.957093 18.017883 1.1590974 6.2674938e-39
-3.9549553 18.021019 1.1581069 6.2674966e-39
-3.95297 18.021137 1.1580266 6.5430058e-39
-3.9509847 18.021255 1.157946 6.5430058e-39
-3.9488175 18.024523 1.1569155 6.3586146e-39
-3.9465768 18.028828 1.1555707 6.0820277e-39
-3.9448354 18.024761 1.1567543 6.0813116e-39
-3.9404895 18.029016 1.1573223 5.8969162e-39
-3.9428444 18.024879 1.1566736 6.0820277e-39
-3.9387715 18.024948 1.1584992 5.6221271e-39
-3.9408531 18.025 1.1565928 5.4377373e-39
-3.9367805 18.025066 1.1584184 3.501992e-39
-3.9388621 18.025118 1.1565123 5.0693149e-39
-3.9829202 18.016512 1.1581646 7.1912591e-39
-3.9809406 18.01663 1.1580843 7.2834576e-39
-3.9789608 18.016748 1.1580042 7.2834576e-39
-3.9769809 18.016869 1.1579239 7.2827415e-39
-3.9751065 18.013878 1.1587856 7.3738581e-39
-3.9731326 18.013996 1.1587057 7.4653349e-39
-3.9711585 18.014114 1.1586258 7.4656908e-39
-3.9691844 18.014233 1.1585457 7.5578865e-39
-3.9673424 18.01115 1.1594365 7.465688e-39
-3.9652362 18.014469 1.1583856 7.0976244e-39
-3.9632621 18.014587 1.1583056 6.9132303e-39
-3.961288 18.014706 1.1582258 6.8206675e-39
-3.9593139 18.014824 1.1581458 6.5444366e-39
-3.9571831 18.018053 1.1571217 6.5433576e-39
-3.9550457 18.021189 1.1561258 6.5433604e-39
-3.9530604 18.021307 1.1560453 6.7266768e-39
-3.9510751 18.021425 1.1559649 6.6344812e-39
-3.9489083 18.024693 1.1549286 6.4500914e-39
-3.9466679 18.028999 1.1535761 6.1742233e-39
-3.944926 18.024931 1.1547673 5.9894761e-39
-3.942935 18.025049 1.1546867 5.9905551e-39
-3.940944 18.025169 1.154606 5.5302959e-39
-3.9368711 18.025236 1.1564314 3.3186797e-39
-3.9391634 18.022139 1.1554822 4.9782011e-39
-3.9351022 18.022207 1.1573025 3.8722137e-39
-3.9371781 18.022259 1.1554017 3.042453e-39
-3.9331169 18.022326 1.1572222 8.7593037e-39
-3.9354055 18.019358 1.1562394 3.50415e-39
-3.9334259 18.019476 1.1561589 8.8514965e-39
-3.9810307 18.0168 1.1561087 7.2834576e-39
-3.9790509 18.016918 1.1560285 7.1912619e-39
-3.977071 18.017036 1.1559483 7.2827415e-39
-3.9751966 18.014048 1.1568156 7.4660538e-39
-3.9732225 18.014166 1.1567358 7.4656908e-39
-3.9712484 18.014284 1.1566557 7.7411987e-39
-3.9694002 18.011202 1.1575521 7.5578865e-39
-3.967432 18.011318 1.1574724 7.465688e-39
-3.9653261 18.014639 1.1564158 7.0976244e-39
-3.963352 18.014757 1.1563357 6.9132275e-39
-3.9613781 18.014875 1.1562557 6.7291936e-39
-3.959404 18.014994 1.1561757 6.6369951e-39
-3.9572732 18.018223 1.155146 6.5440806e-39
-3.9551363 18.021358 1.1541446 6.5440806e-39
-3.953151 18.021477 1.1540642 6.7273957e-39
-3.9511657 18.021597 1.1539836 6.6352001e-39
-3.9489989 18.024862 1.1529418 6.5430058e-39
-3.9470079 18.024982 1.1528612 6.3586146e-39
-3.9450169 18.025101 1.1527804 5.9894761e-39
-3.9432244 18.022072 1.153662 6.1749464e-39
-3.9412391 18.02219 1.1535814 5.8068855e-39
-3.9390435 18.025459 1.1525384 5.1622364e-39
-3.9370525 18.025578 1.1524578 2.9502602e-39
-3.9354959 18.019526 1.1542635 3.3197615e-39
-3.933516 18.019644 1.1541834 8.8514993e-39
-3.9811208 18.01697 1.1541331 7.46713e-39
-3.979141 18.017088 1.1540529 7.46713e-39
-3.9772606 18.014099 1.1549258 7.4660538e-39
-3.9752865 18.014217 1.1548457 7.466051e-39
-3.9733124 18.014336 1.1547657 7.4656908e-39
-3.971458 18.011251 1.1556678 7.7411959e-39
-3.9694898 18.01137 1.155588 7.5578836e-39
-3.9675217 18.011488 1.1555084 7.4656852e-39
-3.9655535 18.011604 1.1554286 7.1898172e-39
-3.9635851 18.011723 1.1553489 7.0054231e-39
-3.961468 18.015043 1.1542859 6.8213892e-39
-3.9594939 18.015162 1.1542059 6.7291908e-39
-3.9573636 18.018393 1.1531703 6.7284719e-39
-3.9552267 18.021528 1.1521635 6.6362791e-39
-3.9532413 18.021646 1.152083 6.6362791e-39
-3.951256 18.021767 1.1520026 6.5440834e-39
-3.9490898 18.025032 1.150955 6.6352015e-39
-3.9470987 18.025152 1.1508741 6.3596936e-39
-3.9451075 18.025272 1.1507936 6.0827508e-39
-3.943505 18.019222 1.1526089 6.0834696e-39
-3.9415252 18.019341 1.1525288 5.7154102e-39
-3.9393442 18.022478 1.1515198 5.3473465e-39
-3.9373589 18.022598 1.1514395 3.2275659e-39
-3.9353735 18.022717 1.1513591 3.2282862e-39
-3.9336061 18.019814 1.1522079 8.4834399e-39
-3.9812112 18.017139 1.1521575 7.4671328e-39
-3.9792314 18.017258 1.1520773 7.4671328e-39
-3.9773505 18.014267 1.1529558 7.5582466e-39
