# .PCD v0.7 - Point Cloud Data file format
VERSION 0.7
FIELDS x y z rgb
SIZE 4 4 4 4
TYPE F F F F
COUNT 1 1 1 1
WIDTH 306
HEIGHT 1
VIEWPOINT 0 0 0 1 0 0 0
POINTS 306
DATA ascii
4.7882442 -2.8390846 0.37829009 1.2993792e-38
4.8091254 -2.8644686 0.37339914 1.3270743e-38
4.7758579 -2.7807555 0.38533252 8.7535332e-39
4.786253 -2.8551722 0.48465827 1.3087426e-38
4.8082819 -2.8658791 0.49693516 1.336438e-38
4.7806253 -2.7779098 0.42220461 9.6751195e-39
4.7840719 -2.8412797 0.70600158 1.3639518e-38
4.8067088 -2.853838 0.69624686 1.5390879e-38
4.7823749 -2.7975159 0.79036021 1.391539e-38
4.7865434 -2.8228087 0.8886767 1.3916465e-38
4.804419 -2.8327379 0.90396011 1.4653672e-38
4.7777042 -2.7899415 0.91355926 1.3454412e-38
4.80509 -2.7901654 0.99477392 1.4745505e-38
4.6243258 1.5114425 0.97371215 5.2533586e-39
4.6637669 1.9753799 0.99441218 7.5575067e-39
4.6924558 2.3604953 0.98724627 7.8344593e-39
4.7023125 2.4048879 0.96777689 6.2667749e-39
4.794816 -2.8062882 1.0475531 1.4470356e-38
4.803751 -2.8094172 1.0487424 1.4654388e-38
4.78229 -2.76178 1.1057268 1.3086711e-38
4.8014135 -2.7868609 1.1202722 1.4562194e-38
4.5970287 1.490905 1.1395586 7.0936741e-39
4.6307425 1.5268865 1.1029295 5.7150557e-39
4.5988274 1.623154 1.1385219 4.6994576e-39
4.6478629 1.7008172 1.1110736 4.4243126e-39
4.6639247 1.8981839 1.1067708 4.4243098e-39
4.6781049 2.0956926 1.112628 4.3324729e-39
4.6932316 2.2824795 1.1071644 4.7012555e-39
4.5757008 2.5139451 1.1513376 4.6094144e-39
4.678627 2.4027932 1.136822 4.608348e-39
4.7957916 -2.8133466 1.2669243 1.4932053e-38
4.8015523 -2.810998 1.2519878 1.4840217e-38
4.7799482 -2.7543423 1.2955874 1.345729e-38
4.8021512 -2.7891295 1.237505 1.4839499e-38
4.5925379 1.4996934 1.2877581 8.4780407e-39
4.6345563 1.5309486 1.301381 4.7930966e-39
4.5929613 1.7128729 1.2990384 3.1335696e-39
4.6446891 1.6567214 1.2643393 5.0700422e-39
4.5957675 1.8120648 1.2293103 9.6794635e-39
4.6606054 1.8930061 1.2173139 6.2685784e-39
4.5983148 2.0742898 1.2246232 9.5861749e-39
4.6767178 2.1227982 1.2542934 6.4533298e-39
4.5971355 2.2135799 1.3758408 8.9418915e-39
4.6975904 2.2614985 1.2969549 4.7012583e-39
4.5770235 2.5284293 1.3047353 4.3328289e-39
4.6806469 2.4084568 1.2837156 4.5161495e-39
4.7903919 -2.8003321 1.4698621 1.5485585e-38
4.7780252 -2.7368388 1.4997159 1.4102662e-38
4.8014364 -2.7671375 1.4863904 1.5393034e-38
4.5968671 1.4809234 1.495441 5.2465161e-39
4.6363792 1.5190593 1.5006549 5.2547936e-39
4.5934916 1.7104599 1.4997658 1.8435511e-39
4.6476398 1.6159992 1.4993594 4.0569721e-39
4.5980005 2.1960504 1.5423243 8.7578702e-39
4.6886644 2.1903021 1.5086212 6.0845458e-39
4.5996194 2.201149 1.5936966 8.6656703e-39
4.7071357 2.2639449 1.498482 4.3331932e-39
4.5744801 2.5365908 1.5066062 4.8856411e-39
4.6789684 2.4058275 1.4715841 4.332117e-39
4.7744327 -2.7195854 1.7002577 1.4102665e-38
4.8003759 -2.7727206 1.6980873 1.5854012e-38
4.5983267 1.4689853 1.7499741 1.2994908e-38
4.6439624 1.5191717 1.6978682 5.4391848e-39
4.5913544 1.7159927 1.7014455 3.5027165e-39
4.6537213 1.6084831 1.6911557 4.0569692e-39
4.5982819 2.1928041 1.7685957 7.9281081e-39
4.6916571 2.1889229 1.7052449 6.083827e-39
4.7106547 2.2585077 1.6999462 4.2402787e-39
4.5701118 2.5530972 1.6989872 6.0838228e-39
4.6508851 2.4320343 1.7696009 3.5934786e-39
4.79844 -3.0475299 1.9830481 1.3726324e-38
4.8086357 -3.0538099 1.9647498 1.6496517e-38
4.7883658 -2.8714342 1.9635756 2.5807658e-39
4.8079643 -2.9039068 1.9366947 6.7252195e-39
4.7713923 -2.7423177 1.9285243 9.7716536e-39
4.8070269 -2.7954042 1.8953396 1.4377077e-38
4.5958042 1.4695224 1.8242929 1.4657667e-38
4.6519842 1.5137281 1.9039612 6.4522592e-39
4.5918989 1.7207627 1.848597 3.3179679e-39
4.6591525 1.604542 1.8483573 4.0566105e-39
4.6671243 1.9137843 1.9981898 3.1328451e-39
4.5963864 2.1812608 1.9103552 5.1622392e-39
4.6938004 2.1853592 1.8994838 6.1767415e-39
4.712862 2.2611251 1.8993497 4.0555301e-39
4.5650492 2.5594056 1.8218197 6.3611285e-39
4.6843977 2.4094453 1.8792272 3.8700641e-39
4.7934279 -3.0537791 2.1045852 1.170233e-38
4.8098044 -3.0729687 2.0974503 1.7421352e-38
4.7888756 -2.8901477 2.1024146 4.5172271e-39
4.8025579 -2.9445236 2.0504968 3.6831322e-39
4.7604904 -2.7501614 2.1052802 9.0348158e-39
4.5964832 1.5800896 2.0686967 3.9633457e-39
4.6593518 1.5127932 2.0759399 6.2675064e-39
4.5811348 1.7208689 2.0172029 3.0420957e-39
4.6745319 1.7004246 2.1058393 3.8711375e-39
4.5951781 1.8566891 2.0890105 3.8697011e-39
4.6924043 1.9006398 2.1076598 3.3179609e-39
4.5969486 2.0957472 2.0329163 4.2392011e-39
4.7041426 2.1017828 2.106097 2.7651472e-39
4.5052829 2.3732259 2.0826728 4.2406501e-39
4.7168021 2.2637618 2.0996351 3.2257666e-39
4.6818428 2.4178514 2.1978588 1.1049042e-39
4.8411698 -3.4052296 2.3938653 7.8384502e-39
4.7893362 -3.2367527 2.3864198 1.4567634e-38
4.8235846 -3.2704914 2.3820064 1.1800334e-38
4.7937803 -3.0732467 2.3497531 1.1707047e-38
4.8117785 -3.0962391 2.2992363 7.8351922e-39
4.7851977 -2.9045551 2.301374 1.170705e-38
4.8020673 -2.9838536 2.2423656 7.4638775e-39
4.7581272 -2.7560084 2.2942905 1.3457679e-38
4.715569 -2.598763 2.379761 1.7052231e-38
4.648283 1.5896872 2.204968 4.423598e-39
4.6614323 1.6382185 2.2130661 3.9636974e-39
4.7252946 1.9742398 2.2068696 7.0976146e-39
4.7310987 2.0637884 2.2073116 7.0043287e-39
4.5994239 2.3080721 2.2662914 4.6069158e-39
4.7271886 2.3348958 2.2791183 6.2685854e-39
4.7395306 2.4090955 2.2294962 2.4867569e-39
5.0851798 -6.3144069 2.5667152 8.6645899e-39
5.0572228 -6.100234 2.5624902 6.1753107e-39
4.7787571 -3.8370037 2.5823431 1.0232274e-38
4.8314819 -3.871357 2.5928924 7.4674859e-39
4.7930369 -3.6389096 2.5441024 8.1121392e-39
4.8537769 -3.6507897 2.5398173 7.559327e-39
4.7946281 -3.4498751 2.549947 8.8493427e-39
4.8418841 -3.5047219 2.504307 8.0203037e-39
4.7957287 -3.2263517 2.5025816 9.402155e-39
4.8217402 -3.2991214 2.4975934 8.9411768e-39
4.7918196 -3.0831604 2.5046904 8.7564268e-39
4.8085923 -3.1543632 2.500854 8.3876443e-39
4.780108 -2.8996184 2.4986682 8.8486253e-39
4.7552333 -2.7483487 2.5014365 9.0322879e-39
4.7158556 -2.5828736 2.5397863 9.5851127e-39
4.7057428 2.3506989 2.4515193 1.0970569e-38
5.080956 -6.4751382 2.7448711 5.254425e-39
5.0858092 -6.3342948 2.6744246 5.899077e-39
4.8316126 -5.0564528 2.7896259 8.5727516e-39
4.7992773 -4.8541164 2.7219644 8.0203051e-39
4.9012685 -4.8583698 2.7861366 7.4664111e-39
4.7692542 -4.6514974 2.7059331 8.8493441e-39
4.922966 -4.6733007 2.7713764 6.1767471e-39
4.7556176 -4.4659185 2.6768661 9.8642121e-39
4.9076104 -4.4908757 2.7330875 5.8079617e-39
4.7892394 -4.2331419 2.6500685 7.8330398e-39
4.8790998 -4.274703 2.7050338 6.7284859e-39
4.7934265 -4.1461849 2.6566772 7.4671258e-39
4.8657303 -4.111577 2.7049234 6.544452e-39
4.7927012 -3.9090285 2.7024353 7.3738567e-39
4.8542814 -3.927639 2.6997805 6.4518976e-39
4.795115 -3.6338644 2.7606885 6.8195969e-39
4.8476524 -3.7015316 2.7157707 6.1753093e-39
4.791297 -3.4746921 2.7138767 6.3596978e-39
4.8319335 -3.4963291 2.7006807 6.0831095e-39
4.7943397 -3.231081 2.7111406 6.0823906e-39
4.8150711 -3.2935488 2.700295 5.9909139e-39
4.7887764 -3.0992539 2.6966958 6.1749408e-39
4.8081036 -3.163703 2.7037125 6.0827494e-39
4.7773314 -2.9078054 2.6949706 6.2671364e-39
4.7579236 -2.745544 2.6696374 6.3589719e-39
4.7125239 -2.5730803 2.6826556 4.6079724e-39
5.0853424 -6.4629412 2.9195416 4.7934483e-39
5.0742126 -6.3319926 2.9000123 4.7008939e-39
4.9656181 -5.8153024 2.9866323 6.3611453e-39
4.9542928 -5.6922836 2.9816108 6.5448107e-39
4.9511533 -5.4255958 2.9739027 5.8058023e-39
4.9446568 -5.2833281 2.9548795 6.1745891e-39
4.7847567 -5.0331831 2.9774678 8.6645969e-39
4.9473648 -5.1102428 2.944706 5.8997986e-39
4.7914629 -4.9058013 2.9324419 8.8489896e-39
4.9308429 -4.9215622 2.9181232 6.3607754e-39
4.7910347 -4.678894 2.9501863 8.756787e-39
4.9192705 -4.6892824 2.9040651 6.5444492e-39
4.7913561 -4.5351348 2.9304779 8.7567884e-39
4.9104266 -4.495543 2.9026656 6.636649e-39
4.7965512 -4.2987189 2.8970752 9.5869036e-39
4.8914862 -4.3118248 2.8940723 6.8206843e-39
4.7933931 -4.0630865 2.9141128 9.4025123e-39
4.8751311 -4.1187158 2.9026287 6.9128744e-39
4.7860718 -3.9089801 2.9082291 9.2177623e-39
4.8585091 -3.9116278 2.8982818 6.912873e-39
4.7960191 -3.6795669 2.9260101 6.728123e-39
4.8409233 -3.6941974 2.9015021 6.8206745e-39
4.7968111 -3.4175358 2.9266143 6.4511704e-39
4.8242388 -3.4779003 2.8942389 6.6359217e-39
4.7979059 -3.2662606 2.8825057 6.4508088e-39
4.8104215 -3.3063347 2.8939767 6.5433632e-39
4.7870059 -3.1133497 2.8568521 5.9909083e-39
4.8039346 -3.1743846 2.8816855 6.2667763e-39
4.778265 -2.9447229 2.8159897 5.5299315e-39
4.7663655 -2.7583222 2.8126233 6.0820249e-39
4.707912 -2.597451 2.8408017 7.2805569e-39
5.0504537 -6.6223698 3.1729977 4.7930924e-39
5.0547543 -6.5014806 3.115268 4.5168684e-39
4.9795747 -6.3030148 3.091373 7.0050658e-39
5.0155339 -6.2450938 3.1789675 4.5164985e-39
4.9900231 -6.0836082 3.1614659 4.4243028e-39
5.0112758 -6.1218691 3.1525903 4.5164971e-39
4.9865232 -5.8976841 3.123162 4.3317485e-39
5.0069027 -5.9263611 3.1591344 4.424307e-39
4.9784298 -5.7067437 3.0859234 4.5164971e-39
5.0118775 -5.6900487 3.1296656 4.3317499e-39
4.9728336 -5.5269732 3.0804195 4.7927308e-39
5.0181065 -5.5704494 3.092701 4.3317485e-39
4.9523244 -5.2893248 3.1159296 5.3459046e-39
5.0534039 -5.3979187 3.066175 4.4239455e-39
4.7861276 -5.0763745 3.0162072 8.5723985e-39
4.9336638 -5.0983148 3.101965 5.7146885e-39
4.7945051 -4.9200945 3.186882 8.2032531e-39
4.9282904 -4.9148588 3.0928166 5.8068841e-39
4.7887716 -4.6752157 3.052526 8.3880031e-39
4.9195657 -4.6759639 3.0980086 5.8068827e-39
4.7939601 -4.5003295 3.0453942 8.2954515e-39
4.9043384 -4.467267 3.0979712 6.1753051e-39
4.7922268 -4.2481132 3.1606598 1.0323743e-38
4.8846893 -4.3041439 3.1157269 7.1887382e-39
4.7913246 -4.0885048 3.1263821 9.032648e-39
4.865602 -4.1021223 3.1039436 6.8195983e-39
4.7804313 -3.918519 3.066776 8.940458e-39
4.8491163 -3.9081228 3.1055005 6.2667791e-39
4.7934537 -3.6729717 3.0606282 6.9125086e-39
4.8437657 -3.6991487 3.0766008 6.266419e-39
4.7978292 -3.5002785 3.0575364 5.8994315e-39
4.8214078 -3.5501711 3.059979 6.082385e-39
4.7815223 -3.3085818 3.0366895 6.1749436e-39
4.8103237 -3.3552744 3.0140731 5.9912684e-39
4.7662311 -3.1451678 3.0222976 7.1887354e-39
4.7480912 -2.9736927 3.0124962 8.2028831e-39
5.0508027 -6.6178188 3.2382226 4.7927308e-39
4.9831324 -6.4833531 3.3594971 4.4239455e-39
5.0366015 -6.4836249 3.3212509 4.5164999e-39
5.2444091 -6.4155421 3.3646822 6.7270398e-39
4.9945245 -6.2832241 3.2900805 4.4239455e-39
5.0135951 -6.3145766 3.2758799 4.5161397e-39
4.9894485 -6.0856652 3.2464395 4.4239469e-39
5.0124002 -6.0799928 3.2794471 4.4239469e-39
4.9913912 -5.9098878 3.3334601 4.4239455e-39
5.0099168 -5.9377871 3.2994349 4.4239455e-39
4.9800692 -5.7204475 3.2895613 4.4239455e-39
5.0058908 -5.7779031 3.3134174 4.5161411e-39
4.965589 -5.539258 3.2832513 4.7005338e-39
4.9470096 -5.2938952 3.2630908 5.1615161e-39
4.9278984 -5.091104 3.2923491 5.7143284e-39
4.9257183 -4.8937268 3.2688718 5.8061625e-39
4.9187479 -4.6825352 3.2311924 5.7139668e-39
4.9207616 -4.4247117 3.2163026 8.6635109e-39
4.7939591 -4.2621622 3.2714634 1.0229738e-38
4.8976455 -4.3042088 3.2992797 7.3727567e-39
4.7898588 -4.0851521 3.3009255 8.1103189e-39
4.8672838 -4.0969162 3.2715158 6.1734947e-39
4.7953444 -3.8741755 3.2455933 6.2667749e-39
4.8527694 -3.9216805 3.2346168 5.5284938e-39
4.7963324 -3.7354708 3.2389154 6.1745779e-39
4.8427444 -3.7612653 3.2073758 5.897635e-39
4.7653308 -3.5513022 3.2408957 8.3872716e-39
4.7637005 -3.3735352 3.2032466 8.3872716e-39
4.9878626 -6.4735332 3.5069246 4.5161425e-39
5.0293922 -6.4727173 3.492003 4.7923693e-39
5.2478046 -6.4107447 3.4712646 7.0954636e-39
4.987402 -6.2934527 3.502284 4.5157838e-39
5.0183201 -6.2962728 3.5248015 4.7920134e-39
5.2021384 -6.2841387 3.403177 6.4497382e-39
4.9929814 -6.1037612 3.4584148 4.5157838e-39
5.0122347 -6.0979114 3.5200853 4.6998163e-39
4.98171 -5.9400916 3.4641275 4.5157824e-39
5.00631 -5.9838376 3.5004497 4.6998149e-39
4.9745197 -5.7341013 3.432415 4.6079766e-39
4.9501953 -5.5346818 3.5106475 4.7008967e-39
4.9367456 -5.2231464 3.4235847 5.5295784e-39
4.9421706 -5.1306148 3.4133854 5.5299427e-39
4.905046 -4.9465528 3.4234574 5.8065226e-39
4.8624592 -4.4340448 3.5709579 8.0188464e-39
4.7893839 -4.2615852 3.5309038 7.6489779e-39
4.8849306 -4.2949667 3.4255946 5.4355639e-39
4.7856679 -4.0804958 3.4538062 7.4645908e-39
4.8529453 -4.1717963 3.4102936 5.3440885e-39
4.7847004 -3.9302733 3.4260139 7.9259319e-39
4.8036728 -3.9316216 3.4308424 7.7418994e-39
4.9808793 -6.4166474 3.7790253 4.7923665e-39
5.0344586 -6.4619637 3.6764495 4.9767647e-39
4.9815121 -6.288651 3.7126465 4.7923651e-39
5.0303192 -6.3190508 3.642962 4.8845691e-39
5.2238593 -6.3741498 3.7314034 7.1872949e-39
4.97651 -6.080318 3.7540841 3.7793006e-39
5.0185289 -6.1181221 3.6963267 4.792012e-39
4.9748669 -5.9520526 3.6690607 4.3317527e-39
5.0121188 -5.9697857 3.6617937 4.7920091e-39
4.95228 -5.7194901 3.6267087 4.4246672e-39
4.8525515 -4.8334541 3.7804024 8.2950759e-39
4.8498092 -4.6972761 3.7473967 8.6631354e-39
4.8407369 -4.5137491 3.6644373 8.4791043e-39
4.7990541 -4.3418193 3.6254475 8.018838e-39
4.8162093 -4.3583879 3.6232784 8.2947102e-39
4.9839525 -6.4511857 3.8776498 4.6083354e-39
5.0519447 -6.4412303 3.8735771 4.8845663e-39
4.984271 -6.2963696 3.8471661 4.5161467e-39
5.0559931 -6.3245292 3.8270023 5.0682373e-39
5.2384315 -6.3803511 3.8993301 6.4526053e-39
4.9842801 -6.1924701 3.8308003 3.6878294e-39
4.8782306 -5.2453537 3.975193 9.4003375e-39
4.8702493 -5.0822649 3.9219217 9.2155903e-39
4.8578281 -4.8643575 3.8365664 9.0315564e-39
4.8416233 -4.7454324 3.8077984 8.9393621e-39
5.0383415 -6.3951015 4.0086131 6.7292258e-39
4.8910546 -5.4054461 4.0408735 9.6772803e-39
4.8849182 -5.3007698 4.0166092 9.584726e-39
4.8880653 -5.1970177 4.0126796 9.5832882e-39
