# .PCD v0.7 - Point Cloud Data file format
VERSION 0.7
FIELDS x y z rgb
SIZE 4 4 4 4
TYPE F F F F
COUNT 1 1 1 1
WIDTH 1068
HEIGHT 1
VIEWPOINT 0 0 0 1 0 0 0
POINTS 1068
DATA ascii
-0.31088841 18.159712 0.69563848 6.913952e-39
-0.11285094 18.168354 0.6988374 7.0987006e-39
0.10218395 18.178446 0.6970377 7.1908962e-39
0.31021851 18.191679 0.7010814 7.1905361e-39
0.49737561 18.193308 0.70457572 6.4533298e-39
0.69367862 18.192652 0.68729973 3.4105194e-39
-4.7754617 18.241856 0.66535795 1.4289957e-38
-4.4886312 18.237309 0.7563802 1.4382511e-38
-4.0721793 18.245113 0.70832974 1.4843848e-38
-3.9349744 18.247238 0.69803727 1.5028239e-38
-3.7622826 18.245691 0.73796791 1.5212988e-38
-0.87111431 18.204439 0.69067448 6.9139478e-39
-0.64143527 18.202814 0.67050409 6.6377238e-39
-0.45377371 18.203405 0.70282698 6.7299222e-39
-0.31389475 18.209663 0.69634765 6.9143121e-39
-0.10032819 18.231842 0.70078623 7.0987034e-39
0.10294724 18.246248 0.69414127 7.0990635e-39
0.34902698 18.205179 0.67277926 7.0986992e-39
0.50309032 18.209843 0.70120257 6.8221123e-39
0.68862057 18.211647 0.6928525 4.7016128e-39
0.81351882 18.281183 0.66996777 5.8083219e-39
-12.085208 17.421694 0.91841984 5.0689436e-39
-11.9857 17.440039 0.90217048 4.5164971e-39
-10.449768 17.56868 0.91400284 8.9313874e-39
-10.298032 17.58036 0.92514265 8.2918221e-39
-10.15103 17.58992 0.9228968 1.3553853e-38
-9.261117 17.565496 0.99260807 6.1666451e-39
-9.0964622 17.582355 0.90759152 1.3546604e-38
-8.8699913 17.553671 0.9757995 1.0597449e-38
-8.7852163 17.554367 0.96115941 1.1335737e-38
-8.5936756 17.591074 0.95405883 1.4565081e-38
-8.3626051 17.596569 0.87025678 1.0876905e-38
-2.8116686 17.575432 0.88618755 1.5026781e-38
-2.7398133 17.56498 0.87548953 1.3549124e-38
-8.8052502 17.602957 0.86445749 1.5208657e-38
-8.7203131 17.647221 0.89635581 1.1797053e-38
-8.5008335 17.681351 0.90650058 1.3459113e-38
-8.2075272 17.687738 0.88904005 6.1753009e-39
-8.0127325 17.699352 0.89298272 6.4515263e-39
-7.900867 17.715872 0.90339667 6.6359175e-39
-7.6454597 17.723646 0.91946697 7.0054161e-39
-7.5034523 17.738541 0.90394306 7.2816471e-39
-7.3098068 17.748768 0.89820534 7.650431e-39
-7.1080599 17.761354 0.89585328 8.0188562e-39
-6.9029093 17.770042 0.90402943 8.2954445e-39
-6.6949968 17.782116 0.89668947 8.4801945e-39
-6.5288072 17.796623 0.9195683 8.296878e-39
-6.3352365 17.795151 0.91013557 8.5727502e-39
-6.0846982 17.79653 0.93628812 8.2968878e-39
-3.5210814 17.795441 0.85980248 1.5765087e-38
-2.85642 17.715521 0.90141016 1.5765081e-38
-2.7535465 17.666178 0.9176268 1.3457647e-38
-6.6178761 17.803083 0.91204149 1.7976346e-38
-6.4649487 17.808453 0.91553044 8.3887149e-39
-6.3046813 17.82193 0.90136182 8.3883576e-39
-6.1258612 17.826839 0.89756221 7.6507939e-39
-5.9997754 17.852388 0.80505854 1.8424679e-39
-5.2174473 17.880295 0.95312613 7.3792097e-40
-5.0871758 17.899084 0.91539234 3.0413712e-39
-4.8999667 17.914745 0.9036786 7.7437084e-39
-4.6574016 17.913328 0.9027853 7.5600346e-39
-4.5048332 17.931614 0.90268546 7.6522303e-39
-4.2382278 17.937323 0.89937353 7.3749217e-39
-4.1072173 17.954576 0.89788115 7.374563e-39
-3.8062224 17.957016 0.84670776 8.2050439e-39
-3.7005134 17.978291 0.89383036 8.3890736e-39
-3.5328331 17.995029 0.91118586 8.6649431e-39
-3.3392417 17.998701 0.90932792 8.8489784e-39
-3.1094382 17.99575 0.92967874 8.7582191e-39
-2.8149922 17.991978 0.86413705 5.1622196e-39
-2.6553228 17.964411 0.9281503 6.8206479e-39
-2.5126724 17.983749 0.90610421 6.2674769e-39
-2.399673 17.999786 0.82612956 7.649338e-39
-5.2186012 18.063313 0.8630079 4.4217805e-39
-5.1235404 18.041059 0.88326162 3.9564737e-39
-4.8762369 18.014654 0.89159948 1.4289957e-38
-4.7036381 18.035704 0.90221745 1.4289957e-38
-4.4969821 18.051882 0.91090512 1.4290317e-38
-4.2997384 18.073803 0.90144408 1.4014087e-38
-4.1012359 18.067566 0.89822775 1.3552746e-38
-3.9170618 18.072556 0.89575112 1.3829693e-38
-3.6275263 18.0021 0.85437757 8.6645843e-39
-3.468343 18.005346 0.89448547 8.6653032e-39
-3.2197189 18.012274 0.88070041 8.574181e-39
-3.0917642 18.028753 0.91689068 8.6660207e-39
-2.8148696 18.009438 0.91534561 5.715036e-39
-2.7959421 18.011669 0.92500693 5.6231991e-39
-2.4239364 18.005207 0.92524135 7.0976005e-39
-2.2361312 18.070326 0.91834176 7.9288186e-39
-2.0473654 18.0839 0.91509306 7.5603948e-39
-1.8995633 18.101963 0.90095592 7.4678404e-39
-1.7015101 18.115042 0.90102679 7.2830918e-39
-1.4612956 18.092979 0.90384436 6.8228283e-39
-1.2967621 18.109123 0.89951205 6.6380811e-39
-1.0979265 18.119701 0.89933616 6.5455268e-39
-0.90712631 18.120325 0.90899628 6.5451681e-39
-0.70790815 18.129122 0.89079839 6.7288418e-39
-0.49709818 18.148884 0.9022063 6.9132345e-39
-0.30568811 18.158215 0.89310861 7.0976258e-39
-0.0922525 18.162186 0.89958823 7.1905403e-39
0.11131877 18.174889 0.89988637 7.3749315e-39
0.29351008 18.183907 0.90858048 7.4671272e-39
0.4972702 18.18873 0.88008446 6.7299166e-39
0.6698916 18.187397 0.8864643 3.6871049e-39
-4.653337 18.223526 0.94682425 1.4289957e-38
-4.45818 18.226179 0.89924043 1.4474347e-38
-4.2378221 18.227461 0.90944755 1.3829337e-38
-4.0802464 18.228136 0.91977024 1.3183608e-38
-3.8613873 18.23205 0.89684373 1.4198835e-38
-3.7892604 18.239843 0.80793077 1.5304823e-38
-1.0957465 18.203362 0.88659936 7.5600374e-39
-0.88365257 18.202429 0.87422884 7.006142e-39
-0.6279617 18.203714 0.83903944 6.6377252e-39
-0.45124307 18.202972 0.86650467 6.9139506e-39
-0.31403401 18.208202 0.89018255 7.0061476e-39
-0.10570318 18.226574 0.8980962 7.0987048e-39
0.10103436 18.240425 0.9034397 7.2834534e-39
0.31016707 18.208702 0.90129018 7.4671286e-39
0.50445938 18.209877 0.8949514 7.2830918e-39
0.69224602 18.215202 0.91960984 5.2547894e-39
0.80339366 18.282293 0.81885082 6.6377224e-39
-12.079977 17.429699 1.0889421 4.9767535e-39
-11.970799 17.448931 1.0774603 4.792728e-39
-10.43224 17.568632 1.1038721 9.2079771e-39
-10.310493 17.580481 1.1021938 8.7513527e-39
-10.117833 17.588577 1.1009263 1.4383611e-38
-9.0655317 17.545197 1.1137948 1.0966947e-38
-8.9099722 17.545612 1.0997823 1.0874035e-38
-8.7870426 17.548328 1.0992588 1.1335735e-38
-8.5932741 17.586655 1.05106 1.493314e-38
-8.3348732 17.595114 1.115607 1.0508483e-38
-2.7194176 17.558014 1.0874375 1.4103373e-38
-11.275378 17.676882 1.1180534 5.9858426e-39
-11.099312 17.681419 1.1156654 9.6671517e-39
-10.899397 17.686741 1.1237394 1.0680572e-38
-10.69913 17.691225 1.1313928 1.1141189e-38
-10.558773 17.692038 1.1381009 9.670044e-39
-10.080338 17.602966 1.1126434 1.4934973e-38
-8.6857328 17.639643 1.0971997 1.1705211e-38
-8.4928951 17.673418 1.0997308 1.2906298e-38
-8.2307177 17.695421 1.0955964 6.2674952e-39
-8.0875826 17.705858 1.0986687 6.2671378e-39
-7.898046 17.716942 1.0999801 6.6359189e-39
-7.640758 17.72953 1.1004884 7.0972558e-39
-7.506043 17.735001 1.1007351 7.3738441e-39
-7.3106275 17.740253 1.0978687 7.7426294e-39
-7.1076736 17.752981 1.0991765 8.1114134e-39
-6.9012547 17.765776 1.0983051 8.4798357e-39
-6.7103276 17.775387 1.1008801 8.6642284e-39
-6.5441785 17.796543 1.0405161 8.4812721e-39
-6.3047342 17.789845 1.1065437 8.8493385e-39
-6.113843 17.796246 1.1198318 5.9919929e-39
-5.1216078 17.779947 1.1620417 1.0145509e-38
-3.5004225 17.785097 1.0130364 1.6133868e-38
-3.2255845 17.787249 1.1420859 1.6503725e-38
-3.1059794 17.793144 1.1184747 1.6595562e-38
-2.8696096 17.725979 1.1210909 1.6410811e-38
-2.7473669 17.665991 1.0989063 1.3642755e-38
-6.640234 17.801029 1.0975057 1.825329e-38
-6.4720325 17.811232 1.0999173 8.6649459e-39
-6.3056488 17.816351 1.0987421 8.7567814e-39
-6.1340632 17.81815 1.101197 7.7433511e-39
-5.9826708 17.853626 1.0661641 3.2246862e-39
-5.224247 17.914055 1.1046093 1.5651551e-39
-5.0934553 17.900232 1.0974897 2.5803944e-39
-4.9058475 17.911455 1.099725 7.5593172e-39
-4.6433468 17.924538 1.0977492 7.4674803e-39
-4.5033116 17.931484 1.0997652 7.5596773e-39
-4.2406383 17.926929 1.0973262 5.9919845e-39
-4.1168051 17.936043 1.0731157 5.7146787e-39
-3.9157634 17.947504 1.0997016 5.4384548e-39
-3.6865683 17.984123 1.0760486 8.5727488e-39
-3.5184956 17.99478 1.1081583 8.8493357e-39
-3.3377912 17.996056 1.1097311 9.1252066e-39
-3.1423523 17.995527 1.0916075 9.034806e-39
-2.8083725 17.984234 1.1009033 5.4377247e-39
-2.6438634 17.976028 1.0980343 6.7280936e-39
-2.5179219 17.985342 1.1013223 6.1745638e-39
-5.2310348 18.048208 1.1000015 4.4210588e-39
-5.1074138 18.022373 1.064509 3.8639138e-39
-4.8778386 18.074371 1.0868919 1.4289955e-38
-4.6843014 18.064819 1.0922356 1.4198121e-38
-4.4900179 18.034002 1.0912219 1.4198479e-38
-4.290308 18.052683 1.0999029 1.3092131e-38
-4.1026659 18.097267 1.0917625 1.023406e-38
-3.932312 18.011307 1.0899776 6.6377182e-39
-3.6736298 18.004192 1.0996389 6.913589e-39
-3.4697738 18.003803 1.0799832 8.7575002e-39
-3.2300372 18.010227 1.118386 9.0340829e-39
-3.0975156 18.024485 1.1007577 9.0344431e-39
-2.810503 18.013151 1.0965363 5.5302874e-39
-2.7939641 18.018801 1.0750653 5.4380876e-39
-2.4453928 18.003721 1.0740734 6.6355448e-39
-2.2303636 18.080099 1.0938294 8.1128525e-39
-2.040591 18.093239 1.0967631 7.7444287e-39
-1.9041275 18.101423 1.1010337 7.5596787e-39
-1.7011775 18.110081 1.1009074 7.1912577e-39
-1.4544188 18.097179 1.1005991 6.7302782e-39
-1.2973187 18.107553 1.0999699 6.6373651e-39
-1.1006955 18.111788 1.1007705 6.4529766e-39
-0.90451616 18.115126 1.0940726 6.5451709e-39
-0.70968211 18.122673 1.1035918 6.6373665e-39
-0.4828237 18.144917 1.0980523 6.9135918e-39
-0.30017978 18.150414 1.0961721 7.1901801e-39
-0.10813257 18.157484 1.10387 7.3749315e-39
0.086767383 18.16383 1.1093017 7.6515184e-39
0.28478295 18.176378 1.1008883 7.8359111e-39
0.50121397 18.185387 1.10719 7.2830918e-39
0.67492223 18.188587 1.08314 4.4250273e-39
-4.8576818 18.208334 1.0749114 1.4289958e-38
-4.6408868 18.208916 1.0934658 1.4106284e-38
-4.5215373 18.233456 1.1231527 1.419848e-38
-4.3286328 18.213005 1.095957 1.3737501e-38
-4.0964751 18.241634 1.1049126 9.8645596e-39
-3.8998737 18.21578 1.0958042 1.0696121e-38
-0.88301265 18.210777 1.0496058 7.2834478e-39
-0.6237455 18.203447 1.1045905 6.730274e-39
-0.42613271 18.204094 1.057894 7.0065035e-39
-0.2731618 18.209185 1.089879 7.098702e-39
-0.10133715 18.222809 1.0934174 7.2830946e-39
0.085589007 18.233101 1.1030892 7.4678446e-39
0.27804375 18.21616 1.0338192 7.5596829e-39
0.53667897 18.207832 1.1163298 7.7437126e-39
0.71289402 18.210653 1.0760428 5.3473423e-39
0.83430535 18.220596 1.0877919 3.5023493e-39
1.0707231 18.348768 1.1138939 7.3756434e-39
1.2036093 18.325697 1.0818917 6.2692916e-39
1.2725767 18.427927 1.1161963 7.2838093e-39
1.4228832 18.455971 1.1309062 7.1919752e-39
-12.054948 17.431551 1.3005869 4.3331848e-39
-11.937565 17.451818 1.3104924 4.8845621e-39
-10.430164 17.570768 1.3064631 9.6707503e-39
-10.285163 17.578154 1.2975719 9.2130498e-39
-10.111486 17.590874 1.3015468 1.4937147e-38
-9.0750427 17.534439 1.300771 1.1243177e-38
-8.9074945 17.537031 1.2997838 1.0874394e-38
-8.7877321 17.539162 1.3013499 1.1151703e-38
-8.592104 17.587183 1.2360942 1.5577429e-38
-8.3327322 17.596289 1.3129144 1.0417008e-38
-8.1615047 17.59664 1.3078467 1.3920813e-38
-2.8210933 17.549839 1.230563 1.687213e-38
-2.7254009 17.548124 1.3091501 1.4012256e-38
-11.279139 17.669607 1.2987764 5.6177859e-39
-11.097734 17.675394 1.2998528 1.0404355e-38
-10.897863 17.680584 1.2993888 1.1417777e-38
-10.697065 17.682686 1.2998132 1.2063142e-38
-10.55579 17.683949 1.3016025 1.0960416e-38
-10.050694 17.605762 1.3139063 1.5856198e-38
-9.0139999 17.602858 1.3665533 1.3090692e-38
-8.6697264 17.634584 1.2956259 1.1152039e-38
-8.5068121 17.670078 1.3049291 1.1985058e-38
-8.2264652 17.691536 1.3006222 6.082748e-39
-8.0835695 17.701622 1.2990196 6.1749422e-39
-7.8977842 17.713247 1.2987698 6.4515305e-39
-7.6361184 17.727682 1.303308 7.0968985e-39
-7.5053377 17.730331 1.2993603 7.465681e-39
-7.3118224 17.734531 1.2970771 7.9270221e-39
-7.1070933 17.749073 1.3007416 8.3880002e-39
-6.9031024 17.759344 1.2981081 8.7571429e-39
-6.7005486 17.768291 1.3023787 9.0337312e-39
-6.4900355 17.796585 1.3085071 9.1259254e-39
-6.2990508 17.797108 1.3114159 9.125924e-39
-6.1055098 17.796394 1.2862802 3.2272002e-39
-5.9962249 17.791206 1.3362517 1.0046426e-38
-5.1093192 17.785593 1.3095672 1.8437335e-38
-3.0537579 17.781582 1.2954226 1.7056902e-38
-2.8934302 17.742834 1.2947836 1.6964704e-38
-2.7431953 17.668358 1.3079375 1.4473594e-38
-6.6270051 17.802364 1.2666092 1.8991935e-38
-6.4673305 17.809368 1.300593 9.125924e-39
-6.302321 17.811153 1.2998075 9.1255667e-39
-6.1319108 17.81296 1.2998136 7.6511541e-39
-5.9966593 17.805685 1.3527241 6.4504347e-39
-5.2216153 17.868834 1.3596135 1.2896542e-39
-5.0870857 17.899469 1.3002673 2.9491784e-39
-4.9032621 17.907797 1.2993677 7.2830932e-39
-4.6368012 17.926033 1.2995487 7.2830904e-39
-4.5020103 17.929432 1.2996972 7.3752861e-39
-4.2361369 17.928965 1.3022562 5.8075946e-39
-4.1392312 17.93895 1.2981126 4.9731508e-39
-3.9122841 17.94846 1.2995065 4.884202e-39
-3.6391544 17.986708 1.3244286 8.8493357e-39
-3.5130813 17.992392 1.3033946 8.9418929e-39
-3.3443 17.995502 1.3041613 9.3099593e-39
-3.1258681 17.995575 1.3181068 9.4035913e-39
-2.8137758 17.980953 1.3000318 5.8987014e-39
-2.6419401 17.976952 1.3009763 8.2035908e-39
-2.5218809 17.982876 1.2987685 7.3731084e-39
-5.2382259 18.042505 1.2167196 4.6976457e-39
-5.1522617 18.013163 1.3506323 4.3274128e-39
-4.8987803 18.09376 1.3208276 1.3921532e-38
-4.7156677 18.108915 1.3047278 1.3829698e-38
-4.5031033 18.125975 1.3044478 1.3921892e-38
-4.2949972 18.102182 1.2866505 1.2908097e-38
-4.1012697 18.090113 1.3069927 9.6761957e-39
-3.9498484 18.027878 1.2932825 4.5157796e-39
-3.6553094 18.003405 1.2599944 7.8355439e-39
-3.4442019 18.002748 1.2754962 9.1255653e-39
-3.2900257 18.00555 1.2949783 9.3099593e-39
-3.1014647 18.019781 1.3016654 9.4028668e-39
-2.820992 18.009577 1.2979078 5.3458962e-39
-2.7697372 18.008659 1.2420391 6.1756555e-39
-2.4043789 18.004253 1.3518053 7.09653e-39
-2.2222381 18.081469 1.3058176 8.2976039e-39
-2.0393221 18.09404 1.3021377 7.8366257e-39
-1.9098002 18.098036 1.2996805 7.5600402e-39
-1.7075481 18.104855 1.3006676 7.1912577e-39
-1.4545878 18.094652 1.3011717 6.8221165e-39
-1.3038692 18.100979 1.3017789 7.5596815e-39
-1.1052449 18.103716 1.2955519 6.4533354e-39
-0.90690792 18.107939 1.3007652 6.2685826e-39
-0.71502674 18.113453 1.292634 6.6370049e-39
-0.48424107 18.14419 1.2975237 6.4529752e-39
-0.30245441 18.145082 1.3091203 7.190899e-39
-0.10370147 18.155745 1.2879261 7.4671272e-39
0.07562536 18.159204 1.3060607 7.7440742e-39
0.29305211 18.174057 1.2896297 7.9288242e-39
0.49149692 18.172245 1.2879156 7.0068651e-39
0.66457462 18.178436 1.3537291 3.871499e-39
0.91491783 18.190014 1.3667073 3.1314074e-39
1.0159948 18.19305 1.2910519 4.6972786e-39
-4.9110503 18.322283 1.3713778 1.3737498e-38
-4.6534252 18.322401 1.3314438 1.3829698e-38
-4.5018139 18.295731 1.2746574 1.401409e-38
-4.2355824 18.268055 1.303632 1.1526242e-38
-4.079102 18.232443 1.2555242 1.0318687e-38
-3.9938483 18.203907 1.2331593 1.4645769e-38
-0.84357011 18.207066 1.311981 7.9284584e-39
-0.69375193 18.211876 1.2401365 6.9150254e-39
-0.47785798 18.203627 1.2900957 5.2551467e-39
-0.26126054 18.205666 1.2373295 7.1912563e-39
-0.10018464 18.219616 1.2937592 7.375649e-39
0.079655521 18.224293 1.2976378 7.5604018e-39
0.29918459 18.237854 1.2970854 7.9291843e-39
0.49026528 18.209856 1.3248359 8.2054097e-39
0.67018026 18.216681 1.3536237 7.1912563e-39
0.82077241 18.226076 1.3639355 3.4108838e-39
1.0509434 18.230795 1.3316765 3.5001871e-39
1.2517463 18.358765 1.2711638 6.6409538e-39
1.4861509 18.386944 1.3367792 1.105277e-39
1.2563312 18.414032 1.3243403 7.5607549e-39
1.4013954 18.460274 1.3155369 7.0994166e-39
-12.200055 17.414204 1.418539 2.5832727e-39
-12.069435 17.436827 1.4992133 3.8722094e-39
-11.901346 17.461132 1.4935451 5.4381002e-39
-11.770913 17.466169 1.4951512 7.9273682e-39
-10.448134 17.572935 1.4696485 9.6718167e-39
-10.299769 17.580065 1.5009807 9.3959949e-39
-10.110975 17.59239 1.5006706 1.5122257e-38
-9.0803299 17.525087 1.5002997 1.078328e-38
-8.9062223 17.528673 1.4998068 1.0598529e-38
-8.7899399 17.528746 1.5003086 1.1059871e-38
-8.5944014 17.582039 1.5637133 1.5210812e-38
-8.3300858 17.595724 1.5135429 9.7716466e-39
-8.1201277 17.597637 1.4880818 1.4013015e-38
-2.7271674 17.528954 1.4933186 1.5117878e-38
-11.27635 17.662806 1.4989203 8.4729498e-39
-11.098509 17.668793 1.499805 1.1142643e-38
-10.89648 17.670664 1.4994129 1.2156061e-38
-10.696581 17.673155 1.4999777 1.317021e-38
-10.551401 17.675245 1.5015161 1.2251512e-38
-10.048739 17.607147 1.5027051 1.5764005e-38
-9.9988556 17.618717 1.5855477 8.0148723e-39
-9.07269 17.601326 1.4888471 1.3091768e-38
-8.9900875 17.601374 1.4734461 1.253788e-38
-8.6682348 17.634895 1.5010782 1.0415193e-38
-8.503809 17.667318 1.4983985 1.1339687e-38
-8.2238007 17.688309 1.5038401 5.8990784e-39
-8.0807056 17.697668 1.4993041 5.991274e-39
-7.8967547 17.707584 1.4996347 6.3596964e-39
-7.6328773 17.723579 1.5018573 7.0972614e-39
-7.5036049 17.725334 1.4984128 7.4664027e-39
-7.3066745 17.73065 1.5002327 8.1117735e-39
-7.1028099 17.7449 1.5005746 8.6649501e-39
-6.9081531 17.754438 1.4999065 9.126287e-39
-6.7114773 17.761938 1.4995922 9.4032354e-39
-6.4630685 17.797255 1.5281193 9.4950723e-39
-6.3622751 17.793612 1.4906329 9.5872651e-39
-6.1110539 17.797117 1.4704597 3.133571e-39
-5.9921174 17.790775 1.5176176 1.0783271e-38
-5.2414541 17.79492 1.528592 7.3756224e-40
-5.062264 17.798986 1.5831877 1.3822184e-39
-3.529109 17.744942 1.5453645 1.6504088e-38
-3.0607634 17.76791 1.5013882 1.7610436e-38
-2.8960845 17.747086 1.5006951 1.7701911e-38
-2.7466371 17.647654 1.4982591 1.5118246e-38
-6.601265 17.801891 1.5137625 1.9914256e-38
-6.4669209 17.806793 1.4979466 9.4950695e-39
-6.3061705 17.80991 1.501549 9.4950695e-39
-6.1423883 17.812639 1.4969524 8.3890821e-39
-5.9910645 17.809237 1.5064591 5.1604231e-39
-5.211062 17.877651 1.5428001 9.2195209e-40
-5.0858607 17.898779 1.5007458 3.1339283e-39
-4.9062142 17.907091 1.4981576 7.1905403e-39
-4.6349044 17.925808 1.4988375 7.0987006e-39
-4.5036588 17.930122 1.4973644 7.0990621e-39
-4.2335901 17.928438 1.5032817 5.6235663e-39
-4.1491847 17.939161 1.4903806 5.161149e-39
-3.9172361 17.943989 1.4991466 5.4388205e-39
-3.6209798 17.98609 1.5017811 8.8497001e-39
-3.5052817 17.991882 1.4978067 9.126287e-39
-3.329246 17.995832 1.500477 9.5869064e-39
-3.1749887 17.998421 1.5263071 9.6798181e-39
-2.8198957 17.977116 1.500664 6.174931e-39
-2.6386871 17.97525 1.5021673 8.2032292e-39
-2.5268734 17.977823 1.4966662 8.0191995e-39
-2.3844264 17.998352 1.4063435 9.8638282e-39
-5.2790403 18.038591 1.4651104 4.9774724e-39
-5.1643839 18.011467 1.5549215 4.4217693e-39
-4.8734107 18.091343 1.5001647 1.3368719e-38
-4.694201 18.113386 1.5089222 1.3276524e-38
-4.5104809 18.109467 1.5085857 1.3277241e-38
-4.2794366 18.123697 1.5007664 1.2170895e-38
-4.1384082 18.028868 1.4473263 7.4685579e-39
-3.9487786 18.015942 1.486294 4.978557e-39
-3.7030735 18.005194 1.4304512 5.0703897e-39
-3.4467854 18.001663 1.5210816 9.3106782e-39
-3.2084398 18.010899 1.5574406 9.6801754e-39
-3.104358 18.017614 1.4993659 9.5879798e-39
-2.8272209 18.007608 1.4976948 5.2540649e-39
-2.6634054 18.012997 1.4662933 8.7593037e-39
-2.406229 18.005775 1.569988 8.3876191e-39
-2.2198055 18.080524 1.5010848 8.4819979e-39
-2.0321198 18.094021 1.4978732 7.9288228e-39
-1.9066281 18.095297 1.4984171 7.5600431e-39
-1.7082822 18.102169 1.5035195 7.1912591e-39
-1.4508551 18.094164 1.4971234 6.9146722e-39
-1.3048431 18.095463 1.5001817 8.2054111e-39
-1.1042408 18.096651 1.5004034 6.0849102e-39
-0.90662706 18.098848 1.5019461 8.2972466e-39
-0.71318507 18.105337 1.4961038 8.2046922e-39
-0.49063647 18.13122 1.5049056 6.3614999e-39
-0.28110251 18.147261 1.4972663 7.2834548e-39
-0.10217024 18.152187 1.4966557 7.5600431e-39
0.1013727 18.160261 1.5031494 7.928827e-39
0.29769826 18.167393 1.5030797 8.2976081e-39
0.49736425 18.177168 1.4909114 8.1132126e-39
0.67234862 18.176874 1.5122046 5.3473423e-39
0.83823436 18.187841 1.4437022 2.5803986e-39
1.0510427 18.195169 1.5321634 4.5110838e-39
-4.81743 18.315756 1.4641819 1.3460912e-38
-4.6567292 18.318502 1.4489754 1.3553111e-38
-4.490284 18.3158 1.5025852 1.3461635e-38
-4.3150735 18.318546 1.4890759 1.2539678e-38
-4.0781794 18.318993 1.5117267 1.1247498e-38
-3.9973941 18.317459 1.5404835 2.1665613e-38
-1.1426723 18.208546 1.4420681 7.744786e-39
-0.73980033 18.204472 1.5142684 7.2830932e-39
-0.45047948 18.201857 1.4310995 8.2046866e-39
-0.25081772 18.205307 1.4661077 7.1919766e-39
-0.07558734 18.210033 1.4966257 7.5600402e-39
0.13614745 18.225496 1.4924381 7.8366271e-39
0.30121022 18.231661 1.4963694 8.1135728e-39
0.51708037 18.248741 1.5014995 8.3905198e-39
0.67204165 18.228975 1.5223297 7.6525932e-39
0.90172184 18.214731 1.4352127 1.9350348e-39
1.0569155 18.309341 1.4170042 4.5172313e-39
1.2276717 18.415714 1.4113939 8.2057642e-39
-12.003066 17.447502 1.6675329 3.5030682e-39
-11.91605 17.455528 1.7211998 4.4246602e-39
-11.635651 17.489925 1.7481468 8.2954333e-39
-11.501883 17.496357 1.7394828 7.7429882e-39
-11.312567 17.50856 1.7284933 7.6518813e-39
-11.1898 17.514599 1.7144977 8.1132168e-39
-10.428173 17.572096 1.708352 9.7629487e-39
-10.284552 17.580467 1.7018715 8.0152394e-39
-10.088443 17.591057 1.6976992 1.5398485e-38
-9.3001614 17.490355 1.783437 1.4656209e-38
-9.0796022 17.516092 1.6998405 1.0967677e-38
-8.9070463 17.519459 1.6999207 1.041414e-38
-8.79181 17.52002 1.6947323 1.1060237e-38
-8.59513 17.591606 1.7193869 1.5301553e-38
-8.3098717 17.596092 1.6851555 1.0233702e-38
-8.1589661 17.598783 1.6859331 1.3277245e-38
-2.8182013 17.593609 1.7165453 1.7977768e-38
-2.7516227 17.581778 1.7291222 1.4011536e-38
-11.273716 17.654623 1.6985805 9.8544395e-39
-11.09784 17.659382 1.6996137 1.1512153e-38
-10.897005 17.660759 1.6999228 1.0316499e-38
-10.697406 17.662846 1.6996795 1.4001058e-38
-10.547423 17.664179 1.7008851 1.3173834e-38
-10.207433 17.603416 1.7112751 1.475528e-38
-10.043703 17.609007 1.708411 1.64101e-38
-9.9867067 17.613289 1.7189907 1.2258761e-38
-9.4214821 17.600475 1.7740066 6.540831e-39
-9.0250168 17.600973 1.7536743 1.3181811e-38
-8.9460297 17.602108 1.7086476 1.2630438e-38
-8.6710653 17.634108 1.6946157 1.0690705e-38
-8.4992285 17.664173 1.7039611 1.1062384e-38
-8.2231808 17.68619 1.6925089 5.8061653e-39
-8.0798559 17.694788 1.6979166 5.8987196e-39
-7.894433 17.704454 1.7003108 6.2671434e-39
-7.6357183 17.719645 1.6992499 7.0054273e-39
-7.5080352 17.7211 1.7002388 7.4664069e-39
-7.3126292 17.727009 1.7019302 8.2036132e-39
-7.097724 17.743351 1.6990504 8.8493441e-39
-6.8983274 17.751478 1.6998708 9.402878e-39
-6.7024355 17.759377 1.6998225 9.7720193e-39
-6.4873199 17.797371 1.6980861 9.6798265e-39
-6.3472357 17.797852 1.7114961 9.6794677e-39
-6.1189504 17.795824 1.7020301 3.4123173e-39
-5.991786 17.788425 1.7073385 1.2350958e-38
-5.2642384 17.796564 1.6303797 6.4608828e-40
-5.0931616 17.794832 1.7076395 1.0141547e-39
-3.5258632 17.733418 1.7047691 1.6227144e-38
-3.2034514 17.752247 1.6332591 1.7886304e-38
-3.0850143 17.754206 1.6747849 1.7794827e-38
-2.9010403 17.727036 1.6968969 1.7886303e-38
-2.7431722 17.630949 1.6505394 1.4379239e-38
-6.6363649 17.802546 1.7116398 2.0191199e-38
-6.4671259 17.805555 1.6992571 9.6794663e-39
-6.3075337 17.809153 1.6993619 9.6794663e-39
-6.1453123 17.81176 1.7001851 8.5734775e-39
-5.9815173 17.814833 1.7104243 4.515774e-39
-5.2084012 17.877048 1.669131 1.1974628e-39
-5.0902467 17.897533 1.6989228 3.0417369e-39
-4.9030566 17.90733 1.6986575 6.9143121e-39
-4.6293054 17.926565 1.6957833 6.7302796e-39
-4.5031152 17.930363 1.7009709 6.9143135e-39
-4.2300448 17.927433 1.7014722 5.4391778e-39
-4.1062465 17.934235 1.7390305 4.8860068e-39
-3.921716 17.945251 1.7025828 5.4384618e-39
-3.6692691 17.981176 1.7266649 8.7578674e-39
-3.5001905 17.992647 1.6990403 9.2188441e-39
-3.3328495 17.996014 1.7110515 9.8634947e-39
-3.1639686 17.998034 1.6578904 1.0048605e-38
-2.8243902 17.978447 1.7036858 5.80651e-39
-2.6368425 17.97402 1.7001618 8.2032334e-39
-2.521152 17.978748 1.699003 7.7426112e-39
-2.3888888 17.995455 1.7060947 7.3749133e-39
-5.2687325 18.012375 1.6090891 7.9288172e-39
-5.1415238 18.018175 1.6201519 5.4366443e-39
-4.8880796 18.060394 1.6998961 1.272335e-38
-4.702744 18.09827 1.6981143 1.2631154e-38
-4.5274129 18.110607 1.6967027 1.2631513e-38
-4.2857318 18.129322 1.7142261 1.1893948e-38
-4.0807767 18.015261 1.7243459 3.6881867e-39
-3.9088111 18.01041 1.6342012 4.0519288e-39
-3.7187903 18.035509 1.7025684 1.4476863e-38
-3.4598899 18.001978 1.6925935 9.3110412e-39
-3.2111876 18.00946 1.7498443 9.6801782e-39
-3.1032472 18.018557 1.6997648 9.8645681e-39
-2.8333142 18.005816 1.691453 4.7930881e-39
-2.7049425 18.014793 1.6910056 9.2217182e-39
-2.4204209 18.006325 1.6909294 8.4801721e-39
-2.2205811 18.079987 1.701295 8.4823595e-39
-2.0344832 18.091002 1.6992085 7.9288256e-39
-1.9044201 18.095589 1.7003018 7.5600445e-39
-1.7033005 18.103109 1.6977742 7.1909032e-39
-1.4499677 18.091255 1.7011445 7.0990677e-39
-1.2963775 18.094038 1.7022492 8.1132182e-39
-1.0978479 18.096376 1.6980171 6.3614985e-39
-0.90498048 18.094292 1.6975504 8.7574988e-39
-0.72160602 18.100391 1.7038313 8.0202911e-39
-0.48474994 18.132336 1.6975337 6.4533382e-39
-0.30158329 18.138636 1.7010965 7.2834576e-39
-0.12106467 18.141914 1.7015511 7.6522415e-39
0.10116729 18.158634 1.6969869 8.0210212e-39
0.28206882 18.161806 1.7022544 8.3898065e-39
0.50479913 18.175623 1.7010189 8.0213799e-39
0.71266633 18.173229 1.6885936 3.6842267e-39
0.84977484 18.184984 1.7521527 1.5637216e-39
-4.8740458 18.289818 1.7819266 1.2446763e-38
-4.6542168 18.295984 1.7309538 1.2631156e-38
-4.487083 18.299393 1.7082183 1.2815546e-38
-4.3006721 18.305016 1.6600488 1.2170535e-38
-4.1210589 18.306322 1.6651052 9.2199133e-39
-3.9918981 18.306906 1.6731788 6.5455156e-39
-0.45966724 18.207401 1.6561083 6.9139366e-39
-0.27002692 18.203424 1.6940569 7.0994222e-39
-0.078892298 18.20944 1.6958994 7.5607605e-39
0.10374098 18.209066 1.7076809 7.929543e-39
0.31120983 18.228445 1.6929711 8.2983256e-39
0.57294732 18.217148 1.685751 8.6667465e-39
0.66962731 18.209782 1.6931 7.1908962e-39
0.83925444 18.254332 1.6808709 4.3321086e-39
-12.06472 17.437391 1.9489211 3.4101565e-39
-11.93327 17.460686 1.8931192 4.3317457e-39
-11.711354 17.482771 1.8987435 7.926648e-39
-11.512944 17.499481 1.860608 7.558234e-39
-11.266706 17.514978 1.9459391 7.1909032e-39
-11.173492 17.528254 1.9286165 7.651517e-39
-10.426709 17.579161 1.8574494 9.6696811e-39
-10.299497 17.583761 1.9013733 8.8431812e-39
-10.109335 17.593468 1.8902593 1.3092874e-38
-9.9787197 17.592556 1.9308639 1.4011575e-38
-9.0802431 17.510487 1.9010338 1.0321948e-38
-8.906786 17.510038 1.9010804 1.0044998e-38
-8.794652 17.512869 1.8702466 1.1797442e-38
-8.579505 17.587826 1.9025005 1.3550203e-38
-8.3085775 17.592672 1.9403068 1.0509925e-38
-8.1478748 17.597132 1.9521441 1.2724429e-38
-2.8222728 17.579214 1.9109942 1.7055813e-38
-2.7460122 17.558498 1.8984146 1.3182135e-38
-11.271614 17.647015 1.8985801 9.7636914e-39
-11.096478 17.648838 1.8993274 1.1696195e-38
-10.895977 17.6513 1.900857 1.0869328e-38
-10.69672 17.654547 1.8999938 1.4554963e-38
-10.542503 17.654388 1.9006892 1.3727375e-38
-10.226562 17.603222 1.9370868 6.0845697e-39
-10.050819 17.609432 1.8945335 1.5303034e-38
-9.9873333 17.613663 1.9649 1.3180002e-38
-9.0296478 17.601597 1.9239769 1.2997056e-38
-8.9345913 17.603844 1.9217681 1.2445327e-38
-8.6680441 17.63381 1.904977 1.0599228e-38
-8.5071669 17.668344 1.8985075 1.106202e-38
-8.2237291 17.683577 1.9029461 5.8065268e-39
-8.0813427 17.693407 1.8996308 5.8065282e-39
-7.8932853 17.70326 1.8983377 6.1749492e-39
-7.6378632 17.717657 1.8941368 6.8210375e-39
-7.5066342 17.719122 1.9019382 7.3742127e-39
-7.3097086 17.724842 1.8999414 8.1117791e-39
-7.1030626 17.738199 1.8968948 8.9415412e-39
-6.90237 17.747061 1.9033746 9.7709389e-39
-6.6978798 17.758142 1.8953514 1.0140082e-38
-6.4700785 17.797625 1.9044013 9.5872693e-39
-6.3105931 17.797281 1.9106158 9.8631373e-39
-6.1305428 17.794989 1.9097658 4.424677e-39
-5.9848294 17.784218 1.9055158 1.3917567e-38
-5.2699285 17.792408 1.9566361 1.1059818e-39
-5.1283398 17.793224 1.9493957 1.1063448e-39
-4.8894906 17.787889 1.94028 2.5832797e-39
-4.6739211 17.796288 1.9549818 9.0366109e-39
-3.5347779 17.799118 1.9903159 1.4567977e-38
-3.0547187 17.739958 1.8869574 1.7148739e-38
-2.8943577 17.726212 1.9029806 1.7148737e-38
-2.770004 17.669348 1.8961686 1.4657995e-38
-6.4646993 17.805628 1.8976294 9.5872707e-39
-6.3029451 17.808603 1.9004827 9.7713004e-39
-6.1578217 17.809452 1.8955404 9.1262898e-39
-5.9684696 17.82044 1.9044955 3.9626002e-39
-5.2061181 17.865091 1.964985 6.4465054e-40
-5.0913258 17.89922 1.8993335 3.2261296e-39
-4.9068217 17.908669 1.901966 7.0061504e-39
-4.6310015 17.929726 1.9038904 6.6380868e-39
-4.5026708 17.933294 1.8997226 6.7299251e-39
-4.226635 17.93247 1.8319274 5.1633112e-39
-4.0807953 17.950336 1.8827904 6.453334e-39
-3.907479 17.963303 1.9063359 7.3749329e-39
-3.6206563 17.983913 1.8931805 8.5734761e-39
-3.4971421 17.993204 1.8985909 9.1259324e-39
-3.3299265 17.995857 1.9027233 9.8631373e-39
-3.0663204 17.997231 1.902949 1.0140444e-38
-2.823724 17.975283 1.904989 5.5299259e-39
-2.6394169 17.974361 1.897622 8.0192051e-39
-2.5291939 17.978832 1.8994783 7.2812743e-39
-2.3685818 17.985443 1.895777 7.8348097e-39
-5.2863984 18.008581 1.9551928 8.0213757e-39
-5.1064177 18.015224 1.8820844 1.0419178e-38
-4.8786516 18.053766 1.8915887 1.1985784e-38
-4.7111716 18.090004 1.8925436 1.1985784e-38
-4.502449 18.09803 1.8994212 1.1986144e-38
-4.2772961 18.1178 1.9017532 1.1986507e-38
-4.1103282 18.073185 1.8979961 1.207906e-38
-3.8974493 18.058302 1.8975635 1.2724788e-38
-3.6368468 18.005629 1.9224571 1.0048245e-38
-3.5038517 18.00193 1.9045146 9.0340941e-39
-3.2102945 18.010323 1.9335822 9.3117544e-39
-3.1041358 18.018488 1.8998517 9.6801782e-39
-2.8359442 18.005007 1.8903121 4.5172215e-39
-2.7267742 18.005932 1.8713214 9.0369724e-39
-2.4220445 18.002134 1.9674693 7.0965271e-39
-2.2219977 18.08095 1.9035215 8.8507819e-39
-2.034425 18.092905 1.8974342 8.1132182e-39
-1.9016536 18.095881 1.9012492 7.8366313e-39
-1.6996043 18.102783 1.8971999 7.3752959e-39
-1.4540389 18.087877 1.8987075 7.1912633e-39
-1.3035265 18.090973 1.898464 7.5600459e-39
-1.1085751 18.096485 1.9011379 6.7302866e-39
-0.91948283 18.098301 1.8984234 7.1909018e-39
-0.70648462 18.10737 1.9028825 7.6518785e-39
-0.48046193 18.12966 1.9050574 8.2050551e-39
-0.29755753 18.137732 1.8994598 8.6660347e-39
-0.11650533 18.143137 1.8999473 9.0351773e-39
0.072360486 18.146149 1.9050756 9.21957e-39
0.2826435 18.154833 1.8911561 9.1277331e-39
0.46898788 18.156168 1.8940378 9.2206434e-39
0.67738259 18.174549 1.9100972 6.8228367e-39
0.84224576 18.182352 1.8009777 1.0116296e-39
-4.8197031 18.288387 1.8063145 1.2354566e-38
-4.6370416 18.28447 1.8770894 1.2169816e-38
-4.4953818 18.287878 1.851289 1.2262728e-38
-4.3628359 18.286291 1.8869383 1.2262733e-38
-4.1859875 18.280792 1.9767621 1.2354928e-38
-0.68732542 18.203918 1.9039003 5.5320965e-39
-0.46260625 18.212397 1.89643 8.2050467e-39
-0.24189004 18.203663 1.9192709 8.7593051e-39
-0.088071182 18.210289 1.9170622 8.390524e-39
0.11186889 18.219881 1.891008 8.3908827e-39
0.29742831 18.230484 1.9016924 8.667471e-39
0.51267362 18.238258 1.9003209 8.8522182e-39
0.67049164 18.238262 1.8561968 7.3760091e-39
0.82222992 18.263561 1.8844916 6.7313642e-39
1.1996082 18.367739 1.9995451 9.682346e-39
-12.052541 17.443207 2.0911105 2.9495371e-39
-11.944051 17.462963 2.0944276 3.4105138e-39
-11.698406 17.487015 2.0950255 7.4656684e-39
-11.459228 17.507256 2.1057305 7.0054217e-39
-11.298457 17.513582 2.1096845 6.9143093e-39
-11.155077 17.523649 2.1335869 7.3745714e-39
-10.434952 17.5797 2.0596964 8.7484478e-39
-10.292766 17.583551 2.0692806 7.8301181e-39
-10.119114 17.592676 2.0968747 6.3618558e-39
-9.9949656 17.537542 2.1317925 6.3593264e-39
-9.0457745 17.507032 2.0162528 9.7687739e-39
-8.8898029 17.506725 2.0453718 9.4921842e-39
-8.7959261 17.50614 2.0499706 1.1336104e-38
-8.5842133 17.590868 2.1291416 1.401046e-38
-8.2779961 17.586718 2.1106424 1.0140425e-38
-8.1072826 17.595278 2.0909915 1.281483e-38
-7.9139156 17.598106 2.161021 1.392046e-38
-2.8137589 17.564186 2.1212714 1.5764714e-38
-2.7420497 17.569784 2.0860753 1.1983233e-38
-11.262952 17.637743 2.0769739 9.5800288e-39
-11.104053 17.642649 2.0651228 1.1327781e-38
-10.904125 17.643141 2.0421214 1.3080208e-38
-10.713522 17.647655 2.0219505 1.4648248e-38
-10.569406 17.64871 2.0068612 1.5017389e-38
-10.208603 17.606346 2.1426792 7.2834421e-39
-10.050743 17.617172 2.1082673 1.0326628e-38
-9.9790945 17.617865 2.0208318 1.2073651e-38
-9.764019 17.636784 2.1675756 4.8813111e-39
-9.0310202 17.601744 2.0749092 1.179959e-38
-8.9114532 17.604803 2.0934312 1.1615203e-38
-8.6643591 17.633596 2.0940199 1.0322281e-38
-8.4993773 17.669094 2.1044033 1.0692883e-38
-8.2318964 17.672516 2.1106935 7.4653251e-39
-8.006114 17.67885 2.1711171 6.7284775e-39
-7.8948994 17.699469 2.0987813 7.0969013e-39
-7.6439915 17.710794 2.1038988 7.00507e-39
-7.5027757 17.717987 2.0991218 7.097267e-39
-7.3112364 17.721949 2.1007917 7.5586067e-39
-7.1028409 17.735991 2.0994239 8.2958116e-39
-6.8967614 17.745359 2.0988777 9.3099622e-39
-6.6988735 17.754692 2.1043975 1.0324108e-38
-6.4987555 17.794333 2.1245902 8.3887261e-39
-6.3455715 17.798157 2.1090612 8.8493441e-39
-6.1445951 17.796589 2.1076601 5.7150487e-39
-5.89081 17.792938 2.1688149 8.2961605e-39
-5.7476983 17.787184 2.1924155 1.1978187e-39
-5.4919143 17.788925 2.1950629 1.2914605e-39
-5.2341056 17.796228 2.0467391 1.105986e-39
-5.0615411 17.787098 2.0993593 1.2907388e-39
-4.9230776 17.793627 2.137403 7.4689208e-39
-4.7036648 17.79248 2.1447339 8.9426104e-39
-4.2448416 17.756294 2.1640561 6.6359105e-39
-4.1385422 17.787685 2.1351004 3.6831407e-39
-3.9655297 17.7757 2.1555309 7.5567934e-39
-3.4700711 17.793484 2.081476 1.4291395e-38
-3.3100963 17.790266 2.1456633 1.4659816e-38
-3.0576134 17.725554 2.1143777 1.5673607e-38
-2.8888462 17.712341 2.0934956 1.5950194e-38
-2.7451067 17.659769 2.1047707 1.2905914e-38
-6.4544635 17.805662 2.0880415 8.7571499e-39
-6.3021278 17.808577 2.1030359 8.9411796e-39
-6.1664691 17.807999 2.0958166 8.7567884e-39
-5.8805413 17.812067 2.1729205 7.7426238e-39
-5.6342363 17.803265 2.1928909 9.2123743e-40
-5.5845137 17.831137 2.1939626 7.3684057e-40
-5.205132 17.868862 2.1119514 7.3684617e-40
-5.0919623 17.899641 2.100121 4.2402773e-39
-4.9038773 17.91083 2.0992382 8.388359e-39
-4.6314731 17.926479 2.1161213 7.8355467e-39
-4.4954758 17.936075 2.0966005 7.6511569e-39
-4.2163434 17.947535 2.1738088 4.7923763e-39
-4.0942173 17.954659 2.1185055 4.8842118e-39
-3.9002953 17.970377 2.0842874 7.1905431e-39
-3.6155303 17.984467 2.0801318 7.9281053e-39
-3.5066957 17.993084 2.1005809 8.0199436e-39
-3.3358903 17.995523 2.0896766 8.7567912e-39
-3.1182971 17.996376 2.0919003 1.106347e-38
-2.8283877 17.97386 2.1036155 4.792721e-39
-2.6437547 17.972553 2.1041288 8.2961563e-39
-2.5312614 17.979816 2.0971301 7.5585857e-39
-2.3640356 17.995205 2.1675398 8.0202799e-39
-2.1833501 17.998739 2.1642487 7.0054119e-39
-5.2678041 18.022861 2.0663524 8.0202967e-39
-5.1921101 18.058506 2.1215184 9.6801754e-39
-4.8391752 18.055595 2.0752239 1.1524808e-38
-4.7053175 18.07424 2.0970263 1.1432614e-38
-4.5004683 18.08477 2.0878444 1.1524805e-38
-4.2833452 18.096277 2.0841365 1.17092e-38
-4.1175046 18.073881 2.0849426 1.143297e-38
-3.9039655 18.057991 2.0841973 1.2447482e-38
-3.6396618 18.004652 2.073576 9.7723794e-39
-3.4627366 18.001904 2.1059585 8.1121392e-39
-3.2168005 18.006243 2.0943773 8.2046922e-39
-3.1032875 18.018986 2.1010942 8.4812763e-39
-2.8368278 18.004261 2.0791426 4.23992e-39
-2.7947922 18.01228 2.0413394 9.1288009e-39
-2.4167957 18.00392 2.1000757 7.4663887e-39
-2.2218752 18.077829 2.1082077 7.9284668e-39
-2.0367413 18.090662 2.1057117 8.1124966e-39
-1.9003541 18.096527 2.0954587 8.6656689e-39
-1.6992569 18.102493 2.1017175 9.2181211e-39
-1.4574069 18.087011 2.099113 8.4812791e-39
-1.3093891 18.091457 2.0969508 8.0203037e-39
-1.1106336 18.09584 2.1042163 7.2831002e-39
-0.90498424 18.101236 2.0943544 6.8224822e-39
-0.70899725 18.107924 2.1006079 7.0065133e-39
-0.50321662 18.119379 2.0984714 7.7437154e-39
-0.30318552 18.132143 2.1033053 8.6656689e-39
-0.093666017 18.139809 2.1041467 9.8642107e-39
0.094500154 18.144941 2.1001556 1.09702e-38
0.30171639 18.15794 2.1028743 1.198435e-38
0.49272937 18.164818 2.0926096 1.1892516e-38
0.69095141 18.179413 2.1144145 9.6808957e-39
0.81642103 18.188541 2.15376 7.0990523e-39
-4.6361508 18.270407 2.0531025 1.1617001e-38
-4.4894199 18.27212 2.0491793 1.1709555e-38
-4.3736806 18.272087 2.0633295 1.1801751e-38
-1.0782756 18.208422 2.1918876 1.2354919e-38
-0.82181609 18.213799 2.1662977 1.2815904e-38
-0.68960238 18.218529 2.1721697 1.2537157e-38
-0.55393595 18.242811 2.1923654 1.2905935e-38
-0.30070162 18.202524 2.0605688 9.7727326e-39
-0.07271079 18.210649 2.0994411 1.0233708e-38
0.120814 18.216675 2.1077693 1.1339697e-38
0.2986007 18.225946 2.0864112 1.1432615e-38
0.51117414 18.248182 2.09112 1.1525168e-38
0.72599828 18.215366 2.0935473 1.0973078e-38
0.86964983 18.219965 2.1053925 7.4681991e-39
1.1451949 18.275129 2.1135557 8.7571373e-39
1.277142 18.293861 2.1151648 9.6780118e-39
1.4423417 18.325495 2.1256638 9.0319249e-39
2.2941422 18.342007 2.1922624 1.2893011e-39
2.4334948 18.381994 2.153652 1.9335803e-39
1.3571684 18.410601 2.0643561 1.1893941e-38
1.5645993 18.435936 2.068934 1.0234421e-38
1.9047347 18.515699 2.1075351 6.0852605e-39
2.1555431 18.576918 2.1285672 4.8870788e-39
2.2873528 18.579279 2.141561 9.8649268e-39
2.4288809 18.498577 2.1457095 8.1117553e-39
2.2850339 18.604708 2.1572542 3.0424446e-39
2.4218967 18.614397 2.1696944 1.0970913e-38
-12.033803 17.446056 2.3052912 4.7001596e-39
-11.910589 17.461712 2.3009341 5.3451703e-39
-11.697928 17.484995 2.3117821 6.1745737e-39
-11.466538 17.508722 2.2994745 6.6362777e-39
-11.317969 17.520918 2.3450148 7.0057833e-39
-11.098698 17.523951 2.3317423 7.6511527e-39
-10.895146 17.54376 2.3212783 8.3883604e-39
-10.70031 17.560534 2.3646007 9.1255695e-39
-10.477268 17.566504 2.3423769 1.0231923e-38
-10.298254 17.587343 2.3118303 1.0877291e-38
-10.152912 17.594925 2.2777033 1.050923e-38
-9.8881159 17.594921 2.2359753 1.1704888e-38
-9.7108259 17.577492 2.3057568 1.4013377e-38
-9.51754 17.587742 2.3299155 1.4473271e-38
-9.3008776 17.591204 2.3103924 1.4473632e-38
-9.0303202 17.590895 2.2938077 1.0970197e-38
-8.951086 17.594105 2.2748103 1.014007e-38
-8.7095108 17.571436 2.2996814 1.2628261e-38
-8.5885258 17.588602 2.2785895 1.3364741e-38
-8.3095379 17.585588 2.3130136 9.1255527e-39
-8.1157475 17.592196 2.3051665 1.2261649e-38
-7.9666414 17.59857 2.3220599 1.3090693e-38
-2.8178222 17.555309 2.2402561 1.5303019e-38
-2.7473321 17.546017 2.2946191 1.1061281e-38
-10.245551 17.603649 2.3202753 1.0878367e-38
-10.081694 17.616196 2.2950063 1.1707406e-38
-9.8949146 17.625751 2.2994964 1.096876e-38
-9.7059069 17.633728 2.3070076 1.1429743e-38
-9.50179 17.650051 2.3134155 1.1614134e-38
-9.3455553 17.656054 2.3074656 1.152158e-38
-9.0868101 17.602772 2.2550118 1.0417389e-38
-8.8848553 17.609764 2.2709434 1.0876915e-38
-8.6653919 17.637667 2.3003645 1.004605e-38
-8.5025415 17.674227 2.299309 1.0232259e-38
-8.2376575 17.656219 2.2467279 5.7143284e-39
-8.0133858 17.668037 2.2556355 5.5299357e-39
-7.8958936 17.687462 2.278538 5.6221342e-39
-7.6560178 17.692572 2.2781708 6.3596978e-39
-7.501451 17.713238 2.2975609 6.5440919e-39
-7.3127489 17.721922 2.3004978 6.9125156e-39
-7.1042147 17.733744 2.3005698 7.2816583e-39
-6.9043489 17.739569 2.3003438 7.742635e-39
-6.7049999 17.748459 2.2977376 7.9273864e-39
-6.4921474 17.784557 2.2977717 7.4667684e-39
-6.3514199 17.796824 2.3348994 7.3742113e-39
-6.1432333 17.79542 2.2749956 5.0696778e-39
-5.9056711 17.795177 2.3537865 3.6863889e-39
-5.7425103 17.795135 2.3414762 3.3186895e-39
-5.5280375 17.792002 2.2625813 4.241722e-39
-5.3291712 17.795021 2.3249741 6.9150296e-39
-5.1543322 17.795589 2.2910099 4.8863698e-39
-4.8541708 17.793112 2.3410242 6.1778317e-39
-4.7147989 17.794777 2.3352008 7.5604046e-39
-4.4566369 17.794304 2.3669376 7.5600388e-39
-4.2421675 17.76543 2.2781103 3.7764251e-39
-4.1520128 17.775896 2.3058538 5.5310147e-39
-3.9560225 17.782127 2.2701607 4.2381235e-39
-3.4837213 17.776873 2.313844 1.3276881e-38
-3.2690279 17.787045 2.3084774 1.4198476e-38
-3.0999937 17.750975 2.2986472 1.4751291e-38
-2.8965263 17.697552 2.3034906 1.4935679e-38
-2.7479119 17.644779 2.2976594 1.1706653e-38
-6.6785378 17.803909 2.3348927 1.5027166e-38
-6.4278803 17.804531 2.2546098 7.7437154e-39
-6.2964668 17.809605 2.2964973 7.5586039e-39
-6.0441971 17.819145 2.3332174 3.7793034e-39
-5.9078827 17.835888 2.3358557 3.0417383e-39
-5.6349807 17.83897 2.3256412 3.3190413e-39
-5.4995823 17.859621 2.3292925 3.0417397e-39
-5.2170453 17.869619 2.2942777 2.7658731e-39
-5.0953045 17.891638 2.2955251 3.8714976e-39
-4.9052062 17.912357 2.2988713 6.083834e-39
-4.6497283 17.911568 2.3066111 5.6239334e-39
-4.49259 17.936235 2.3011143 6.1763897e-39
-4.2254944 17.934931 2.3125489 5.8994413e-39
-4.1241417 17.950697 2.3001916 5.0693219e-39
-3.816792 17.941195 2.3648977 6.4533368e-39
-3.7505116 17.9513 2.3747461 6.545531e-39
-3.5072713 17.99399 2.2949629 7.2827373e-39
-3.317909 17.996244 2.2792411 7.6511625e-39
-3.1816068 17.997955 2.3602111 7.4667656e-39
-2.8339162 17.974174 2.3010199 4.3317443e-39
-2.6606712 17.958059 2.2972655 7.1898046e-39
-2.5325022 17.97893 2.2955976 6.5440736e-39
-2.3706694 17.995693 2.2464139 8.0202813e-39
-5.1161561 18.045605 2.2808874 1.1524088e-38
-4.8277254 18.097122 2.3207941 1.1247503e-38
-4.7087345 18.079477 2.2808247 1.1340057e-38
-4.4960532 18.097797 2.2606521 1.1340057e-38
-4.2841268 18.099339 2.2822299 1.1340055e-38
-4.1243849 18.061272 2.2852461 1.1156023e-38
-3.9076056 18.119675 2.2693944 1.1709558e-38
-3.6992414 18.007929 2.3061666 3.4036909e-39
-3.4606252 18.003836 2.3243778 7.2827387e-39
-3.238374 18.007208 2.3434703 7.3752889e-39
-3.1010566 18.023336 2.2997708 7.5596801e-39
-2.8442154 18.002842 2.2789803 4.0555259e-39
-2.4337211 18.002024 2.3479595 6.3582503e-39
-2.241504 18.061546 2.308758 6.3615027e-39
-2.0536647 18.076195 2.3073328 6.0845556e-39
-1.8968854 18.09808 2.2931278 6.0849158e-39
-1.7021409 18.10541 2.3001142 6.2685868e-39
-1.4728172 18.081358 2.3020921 6.0841955e-39
-1.3039179 18.090816 2.2997031 6.2689469e-39
-1.1020019 18.096518 2.2979364 6.4529794e-39
-0.90294105 18.099314 2.2994816 6.3611439e-39
-0.70628887 18.105215 2.3001111 6.2693084e-39
-0.50362897 18.120981 2.30428 6.2689511e-39
-0.31554079 18.130562 2.3041239 6.3611453e-39
-0.11432905 18.141052 2.295315 6.7299265e-39
0.093818054 18.152044 2.3034818 7.0068721e-39
0.29156104 18.155787 2.3063476 7.3756532e-39
0.48595345 18.164152 2.293539 8.0210198e-39
0.67380363 18.17061 2.2975287 7.3763693e-39
0.89510661 18.178038 2.3068845 6.9150352e-39
1.0892267 18.186455 2.317481 7.8369915e-39
1.2962893 18.187275 2.3257272 7.8366285e-39
1.5033202 18.189856 2.3267279 7.6522359e-39
1.6616675 18.19105 2.3231692 7.5596815e-39
-4.712945 18.253201 2.2592366 1.134006e-38
-4.4679708 18.256216 2.2506676 1.1431894e-38
-3.8992374 18.257622 2.3007922 1.2077979e-38
-0.6396783 18.210394 2.2364051 9.5894189e-39
-0.46261254 18.205807 2.3346334 6.7306411e-39
-0.27386785 18.203697 2.3041441 6.5462513e-39
-0.070683151 18.212687 2.2988596 7.0075881e-39
0.097183317 18.21726 2.2946787 7.4685649e-39
0.29367399 18.23423 2.3213644 7.8369887e-39
0.49511716 18.244087 2.2959642 9.2199189e-39
0.7189796 18.257103 2.3422074 8.3905184e-39
0.89602625 18.214743 2.2867284 6.5458939e-39
1.117028 18.225508 2.3323457 5.6239376e-39
1.2964906 18.211504 2.3458636 7.6525974e-39
1.4910499 18.21578 2.3058844 7.4685663e-39
1.7189016 18.224699 2.3243196 7.4682062e-39
1.8628858 18.22187 2.3761249 6.9146722e-39
2.4292822 18.386311 2.2070179 1.5651635e-39
-11.900799 17.467285 2.4973457 5.6203167e-39
-11.676616 17.489477 2.5083618 5.2515356e-39
-11.491717 17.502478 2.4769185 5.3448228e-39
-11.319122 17.512772 2.4972997 6.082748e-39
-11.110581 17.525623 2.4889071 6.8195885e-39
-10.883982 17.539505 2.4981802 7.3738455e-39
-10.683016 17.555698 2.5015509 8.1114092e-39
-10.476775 17.574726 2.49827 8.8489784e-39
-10.350866 17.592957 2.4785161 1.0047523e-38
-10.176158 17.594814 2.4500971 1.1061675e-38
-9.9139977 17.573349 2.50348 1.0969475e-38
-9.7096701 17.577612 2.4880447 1.1614844e-38
-9.5166759 17.588633 2.4898131 1.1890714e-38
-9.3104172 17.588802 2.5116284 1.1337892e-38
-9.0536413 17.587978 2.4288068 1.0785803e-38
-8.9013081 17.55703 2.4947391 1.1337163e-38
-8.7078619 17.577133 2.5005987 1.0138254e-38
-8.5546379 17.582861 2.5083802 1.1428633e-38
-8.2971649 17.582636 2.4958894 8.2035894e-39
-8.1087523 17.593208 2.4987431 1.0047509e-38
-7.944633 17.596258 2.5143728 1.0138983e-38
-5.1152411 17.591908 2.4235051 1.1246418e-38
-2.8162894 17.541065 2.435842 1.2630063e-38
-2.7495973 17.54495 2.4211717 9.7705479e-39
-10.43551 17.604132 2.4736667 1.013972e-38
-10.294754 17.608732 2.5273521 9.6787377e-39
-10.097876 17.613216 2.4960766 1.0600338e-38
-9.9071741 17.625414 2.4996994 1.0877284e-38
-9.6920938 17.642286 2.5005131 1.1153154e-38
-9.4926138 17.655304 2.4922695 1.1152797e-38
-9.3483534 17.662161 2.5123382 1.0599259e-38
-8.666131 17.643608 2.4990847 9.1230163e-39
-8.4952269 17.680681 2.5020847 8.8482399e-39
-8.2922144 17.698252 2.4938164 1.0599607e-38
-8.0151844 17.67691 2.4053736 4.7923805e-39
-7.8522553 17.692898 2.421804 4.7923735e-39
-7.6726589 17.7033 2.4286826 4.7923735e-39
-7.4486251 17.713585 2.4262979 5.5302973e-39
-7.2964578 17.722645 2.454999 5.8983623e-39
-7.0996757 17.733494 2.4903989 6.1749478e-39
-6.8983216 17.738853 2.5008454 6.5433716e-39
-6.6977448 17.74408 2.5056467 6.7284817e-39
-6.4271464 17.785191 2.4156227 6.9132331e-39
-6.352016 17.794744 2.4257441 6.8213976e-39
-6.1106009 17.793678 2.5247457 6.2671476e-39
-5.9248834 17.792362 2.5110004 6.6370035e-39
-5.7431641 17.794792 2.4804728 6.6377196e-39
-5.5703659 17.795382 2.4526849 6.5451667e-39
-5.3591733 17.796347 2.4811976 5.9923502e-39
-5.1210113 17.795979 2.4635358 6.360774e-39
-4.8734245 17.794298 2.4987576 6.7291978e-39
-4.713758 17.789146 2.4969289 6.7291978e-39
-4.5516987 17.793913 2.4973543 6.2685784e-39
-4.3706865 17.797825 2.5332999 6.730281e-39
-4.1767135 17.79855 2.5159752 6.8224766e-39
-3.6228456 17.761803 2.4495847 1.1432608e-38
-3.5223224 17.76469 2.4680302 1.1708835e-38
-3.2619972 17.774343 2.4862564 1.2077615e-38
-3.1112289 17.750824 2.4827361 1.2446392e-38
-2.8985276 17.693899 2.436964 1.3552379e-38
-2.7628286 17.628891 2.4212306 1.1246397e-38
-6.4461479 17.801203 2.4058242 1.5487061e-38
-6.2666173 17.808636 2.4529567 6.7288418e-39
-6.0382385 17.813593 2.4109714 6.3600607e-39
-5.8834572 17.836979 2.4452639 5.9916369e-39
-5.6115208 17.84001 2.4140015 5.4388247e-39
-5.4841065 17.858908 2.4338825 5.2544292e-39
-5.2968874 17.877892 2.4755664 5.1611574e-39
-5.0583401 17.888592 2.4229929 4.7012555e-39
-4.8878551 17.91254 2.4646659 4.6090612e-39
-4.6298289 17.90835 2.4207945 4.60942e-39
-4.4869704 17.930143 2.4444287 4.7019771e-39
-4.2350631 17.92181 2.4131465 5.1625923e-39
-4.0899563 17.9517 2.4364104 5.6224957e-39
-3.894881 17.975302 2.4825737 5.7150515e-39
-3.6656423 17.966825 2.4324186 6.4526193e-39
-3.5037005 17.990065 2.4621878 6.6373665e-39
-3.2298779 17.99408 2.4927762 6.269293e-39
-3.1660421 17.995543 2.5311141 6.3604223e-39
-2.8544123 17.970968 2.4431593 3.8714878e-39
-2.6245792 17.957842 2.4150081 6.359688e-39
-2.5373564 17.970863 2.4336579 4.8849138e-39
-2.3927975 17.992409 2.48909 6.728825e-39
-4.8864856 18.101921 2.4028416 1.1247504e-38
-4.6867132 18.096655 2.4924948 1.1338626e-38
-4.5316801 18.100414 2.4639535 1.1154581e-38
-4.2577038 18.093273 2.449492 1.0602489e-38
-4.0811081 18.027651 2.4247496 1.078688e-38
-3.9131324 18.088713 2.465905 1.1063829e-38
-3.6247778 18.00209 2.5171058 5.9909181e-39
-3.4372957 18.00382 2.4677191 6.7295621e-39
-3.212992 18.004944 2.4717095 6.6380797e-39
-3.0973611 18.018585 2.47768 6.6377196e-39
-2.9191744 18.025482 2.4986198 6.1763827e-39
-2.4301324 18.008238 2.5196533 5.1611406e-39
-2.2312028 18.051588 2.4335938 5.5320951e-39
