# .PCD v0.7 - Point Cloud Data file format
VERSION 0.7
FIELDS x y z rgb
SIZE 4 4 4 4
TYPE F F F F
COUNT 1 1 1 1
WIDTH 56
HEIGHT 1
VIEWPOINT 0 0 0 1 0 0 0
POINTS 56
DATA ascii
5.2516389 -2.8120565 0.95861745 1.0043183e-38
5.2544012 -2.7875803 0.9628638 8.3861982e-39
5.2740154 -2.821244 1.1249385 9.1252009e-39
5.2607732 -2.7833729 1.1205369 9.9553161e-39
4.4950757 2.313055 1.1850921 7.4653111e-39
4.5025692 2.4344099 1.1834041 6.3604097e-39
5.3227863 -3.6269066 1.3871036 8.4827252e-39
5.3420887 -3.4680021 1.3855405 7.7430106e-39
5.3216715 -3.2833953 1.3849114 8.1146658e-39
5.3045626 -3.1156149 1.3912448 1.2636227e-38
5.283083 -2.8300676 1.3211678 1.0972007e-38
5.2624712 -2.7754567 1.2971357 1.1247505e-38
4.4980741 2.3136601 1.2998812 7.8337335e-39
4.504528 2.4314375 1.2975607 6.912866e-39
5.3269615 -3.8089592 1.4762379 1.2262742e-38
5.3581338 -3.6266737 1.5690047 1.2722282e-38
5.3486981 -3.4868741 1.507099 1.1984714e-38
5.3219285 -3.28405 1.500134 1.1708122e-38
5.3009181 -3.0866725 1.4945313 1.1338972e-38
5.2822237 -2.8905768 1.4992801 1.1523362e-38
5.2581558 -2.7638764 1.5033106 1.2261284e-38
4.4775696 2.199326 1.5828201 1.0047506e-38
4.5004725 2.3085864 1.4999198 7.8340964e-39
4.5084114 2.4291105 1.4981302 6.9132289e-39
5.3289547 -3.8004167 1.6003946 1.2814839e-38
5.3570914 -3.6192839 1.6818069 1.2538608e-38
5.3501949 -3.4871087 1.7044195 1.1708128e-38
5.3278446 -3.3029227 1.6994284 1.1338983e-38
5.3052888 -3.1141782 1.6987213 1.106239e-38
5.196599 -2.8109429 1.6869485 1.8159996e-38
5.2819042 -2.8911374 1.6985031 1.1431894e-38
5.1978602 -2.786036 1.6880636 1.8252184e-38
5.2573252 -2.7586474 1.6992393 1.2169097e-38
4.4806051 2.1974864 1.6929342 9.6780062e-39
4.5033979 2.3102956 1.6994886 7.3734812e-39
4.5103912 2.4234557 1.6998256 6.7288404e-39
5.3436041 -3.8251066 1.8952687 1.2724087e-38
5.323257 -3.6308134 1.8586463 8.6667549e-39
5.3514209 -3.4894688 1.8419359 8.2968878e-39
5.328866 -3.3408694 1.9026546 8.8446288e-39
5.3003693 -3.0845666 1.842926 9.3077677e-39
5.2794847 -2.8980246 1.9099205 8.2939885e-39
5.2569871 -2.7604766 1.8878294 9.4017878e-39
4.4808774 2.1960151 1.8992134 7.4649565e-39
4.5042391 2.3105009 1.8999777 5.0685946e-39
4.5122299 2.417356 1.8976991 4.4239511e-39
5.3200846 -3.4323101 2.0037084 1.1427201e-38
5.2932091 -3.0635118 2.0355992 4.7941657e-39
5.2784953 -2.8895082 2.1074882 8.0217513e-39
5.256496 -2.7593417 2.087327 1.4476159e-38
4.4840584 2.1914699 2.0464284 4.8841992e-39
4.5003953 2.3038788 2.0601878 3.225045e-39
4.5106573 2.4149406 2.0696218 3.501999e-39
5.2536807 -3.0360224 2.2207739 1.0147657e-38
5.266078 -2.913219 2.2095637 1.4017704e-38
5.2232137 -2.7995195 2.2099988 1.3078138e-38
