# .PCD v0.7 - Point Cloud Data file format
VERSION 0.7
FIELDS x y z rgb
SIZE 4 4 4 4
TYPE F F F F
COUNT 1 1 1 1
WIDTH 1062
HEIGHT 1
VIEWPOINT 0 0 0 1 0 0 0
POINTS 1062
DATA ascii
-2.9713542 13.954066 0.17974155 1.023047e-38
-3.0046833 14.154618 0.13297637 1.3826822e-38
-2.9816201 14.130083 0.15450144 1.2166576e-38
-3.0096607 14.283373 0.12178666 1.4103771e-38
-2.9874809 14.343205 0.17617136 1.1152417e-38
-3.007889 14.556875 0.17316228 1.2719752e-38
-2.9918187 14.541688 0.16851602 1.2535353e-38
-3.0136554 14.682813 0.14247386 1.4195246e-38
-2.9960868 14.629894 0.15423883 1.3733545e-38
-3.0121922 14.947321 0.17814305 1.1244613e-38
-2.9966946 14.894113 0.17622189 1.0968025e-38
-3.024359 15.113668 0.14799824 1.3089253e-38
-3.0382681 15.369691 0.17594641 9.8624045e-39
-3.0523372 15.519235 0.15789539 1.1429371e-38
-3.0452027 15.75147 0.17756978 1.576184e-38
-3.0497561 15.853948 0.1672166 1.6223543e-38
-3.0780487 16.0746 0.086956814 1.6592691e-38
-3.1010208 16.348227 0.072237 1.6500853e-38
-2.9949763 16.337965 0.083102807 1.6776719e-38
-3.1138122 16.531736 0.072129637 1.6132435e-38
-3.1289802 16.671223 0.065342978 1.6040236e-38
-3.1387303 16.923939 0.055652525 1.5579974e-38
-3.1600165 17.101208 0.060759228 1.5394867e-38
-3.161325 17.214609 0.049150161 1.5302671e-38
-2.5155036 4.3217607 0.36218587 8.6645857e-39
-2.399791 4.2225375 0.34527141 8.5727516e-39
-2.5171027 4.4520435 0.38202846 8.8489798e-39
-2.5281756 4.6882229 0.32577747 8.2954445e-39
-2.5400231 4.8911676 0.35984206 8.4801959e-39
-2.5470023 5.0393147 0.38556644 8.7564226e-39
-2.5459611 5.2777729 0.34361815 9.0330137e-39
-2.5544088 5.4569263 0.37464508 9.2174064e-39
-2.5416517 5.6958995 0.33348733 9.3103167e-39
-2.5452912 5.8784733 0.35629395 9.4017962e-39
-2.5460126 6.0330949 0.38471007 9.58547e-39
-2.6385186 6.3387823 0.38652128 1.3182172e-38
-2.5622098 6.2915139 0.35660291 9.4010802e-39
-2.6523833 6.5554605 0.37764597 1.2628998e-38
-2.562685 6.4407601 0.38309133 9.1248492e-39
-2.6603465 6.7451806 0.36908957 1.2076543e-38
-2.6671135 6.9370904 0.39110208 1.1798158e-38
-2.6763952 7.1594791 0.38120499 1.041702e-38
-2.6859474 7.3106308 0.35850111 9.403227e-39
-2.6920135 7.4929991 0.38415313 8.57203e-39
-2.7003767 7.7151113 0.34985146 7.0968957e-39
-2.7138629 7.9782233 0.37725052 5.3448144e-39
-2.7199926 8.1159649 0.36559874 5.4355667e-39
-2.6282766 8.3616972 0.36777285 1.5669628e-39
-2.6333866 8.4460583 0.3743166 1.3829302e-39
-2.5999305 8.4017258 0.20699631 9.2230943e-40
-2.7314682 8.6256742 0.30788273 8.9378978e-39
-2.6488495 9.2819881 0.24461487 7.0010777e-39
-2.5021045 9.3572779 0.36669728 4.2420696e-39
-2.808779 9.5696716 0.21014199 1.3454416e-38
-2.723645 9.453805 0.388015 5.8940183e-39
-2.5853062 9.4837894 0.33932099 6.4522381e-39
-2.8030865 9.7563963 0.35568485 1.3634833e-38
-2.7023287 9.6846218 0.33593109 5.7114277e-39
-2.5516014 9.6080399 0.36525127 4.7030477e-39
-2.8024738 9.9799757 0.33156028 1.3358959e-38
-2.7181225 9.8969812 0.37341422 5.8969064e-39
-2.5895257 9.8991241 0.24936175 4.4264622e-39
-2.8037553 10.123067 0.32311609 1.2991259e-38
-2.7225025 10.044389 0.37347701 6.6330309e-39
-2.5991032 10.135119 0.3417584 5.2555012e-39
-2.8095431 10.365677 0.33227897 8.1103091e-39
-2.729511 10.305164 0.36792898 2.7651472e-39
-2.818254 10.500797 0.33270341 7.4652999e-39
-2.7290616 10.444581 0.38655257 4.7012583e-39
-2.823246 10.693257 0.34090996 1.0324813e-38
-2.7301424 10.704463 0.34038034 4.7938098e-39
-2.8084638 10.893517 0.3189148 1.1338978e-38
-2.7351491 10.87737 0.3676621 4.8860082e-39
-2.8101192 11.155476 0.26056418 1.1339339e-38
-2.7416334 11.041542 0.36328867 5.0700408e-39
-2.8115704 11.339748 0.25393617 1.1339701e-38
-2.7573433 11.306442 0.34157902 5.1629525e-39
-2.807754 11.487329 0.245113 1.1248224e-38
-2.7665412 11.473287 0.36379918 5.2547894e-39
-2.8073549 11.739276 0.2416852 9.4039542e-39
-2.7809157 11.627698 0.3832278 5.346985e-39
-2.802835 11.943521 0.29723236 7.2834534e-39
-2.7778227 11.905253 0.35178974 5.2551495e-39
-2.8072319 12.088728 0.24569054 5.3477011e-39
-2.7882473 12.066151 0.3816542 5.3469836e-39
-2.8028409 12.354722 0.33814979 5.2551523e-39
-2.7915168 12.299833 0.32653615 5.2551509e-39
-2.8081014 12.49681 0.36068508 5.1625979e-39
-2.7979188 12.43265 0.33745435 5.1629553e-39
-2.8187847 12.626462 0.38268825 5.1622378e-39
-2.8411446 12.88898 0.33060408 4.9785612e-39
-3.0088396 13.172883 0.27535114 1.1061674e-38
-2.8562305 13.079159 0.37151822 4.9782053e-39
-3.0113542 13.369842 0.32328925 1.2813395e-38
-2.8744648 13.231143 0.36423084 5.992353e-39
-3.0069764 13.533637 0.35106346 1.3552037e-38
-2.905287 13.492276 0.35241842 8.0206611e-39
-3.0044141 13.712305 0.34646559 1.2814467e-38
-2.9159138 13.654766 0.37760741 8.1128525e-39
-3.0055594 13.961141 0.23673455 1.2720824e-38
-2.9472094 13.827878 0.38723889 1.0969483e-38
-3.0043113 14.150332 0.37318084 1.3736794e-38
-2.958164 14.024141 0.38315532 1.0971284e-38
-3.0050099 14.324115 0.29465508 1.1799962e-38
-2.973402 14.34118 0.38239503 1.4196685e-38
-3.006742 14.555888 0.30255434 1.1707762e-38
-2.9824939 14.49853 0.3586885 1.4197047e-38
-3.002717 14.780128 0.37161312 1.4381072e-38
-2.9958293 14.75471 0.38838726 1.4565109e-38
-3.003921 14.949644 0.34690183 1.4749856e-38
-2.9961143 14.908952 0.35939428 1.447291e-38
-3.0153813 15.142017 0.3579396 1.4842416e-38
-3.020694 15.324472 0.37058568 1.4841697e-38
-3.025676 15.505665 0.341465 1.4657663e-38
-3.0440974 15.757951 0.38064823 1.5025718e-38
-3.0529687 15.831974 0.37606445 1.5301941e-38
-3.0457523 16.054518 0.2040547 1.631682e-38
-2.5236404 4.3404732 0.53349757 9.1248464e-39
-2.5302238 4.4877429 0.5672375 9.4932674e-39
-2.5349135 4.6255155 0.58740962 9.8620485e-39
-2.5462537 4.8971906 0.56192911 9.9546057e-39
-2.548295 5.0353308 0.58177274 1.02312e-38
-2.561384 5.3010807 0.53757149 9.4932688e-39
-2.5676222 5.4844275 0.56425196 9.6773013e-39
-2.6045554 5.7761459 0.59026164 1.3644234e-38
-2.5766096 5.6199179 0.58877015 9.861694e-39
-2.6178732 5.929131 0.56473172 1.3827905e-38
-2.5768604 5.8905983 0.55718327 9.7702186e-39
-2.6271832 6.1122661 0.58974594 1.3643874e-38
-2.5809479 6.0420814 0.57911652 9.9538896e-39
-2.6311262 6.3564062 0.57962173 1.3643157e-38
-2.5687244 6.2905049 0.53415138 9.7698585e-39
-2.6481791 6.5661163 0.54496062 1.2906667e-38
-2.5729632 6.4760246 0.56734586 9.4936317e-39
-2.6482234 6.6968513 0.57239711 1.2813756e-38
-2.5717833 6.619297 0.59371525 9.2177609e-39
-2.6657789 6.9677949 0.57569224 1.1983994e-38
-2.6616888 7.0592175 0.56391311 1.1707407e-38
-2.6800489 7.3097959 0.5409143 1.032411e-38
-2.6844518 7.5459414 0.55616915 8.8493385e-39
-2.6851048 7.7776613 0.58228111 7.741905e-39
-2.7004466 7.9465442 0.55616999 5.9901852e-39
-2.7032304 8.0914288 0.59063745 5.0682233e-39
-2.6520491 8.358923 0.48797944 1.2896556e-39
-2.6916707 8.5184212 0.57804424 3.4101509e-39
-2.7293196 8.6118708 0.54843533 9.3981795e-39
-2.8122125 9.187479 0.48656765 1.4648262e-38
-2.8069897 9.2666311 0.48830763 1.4557508e-38
-2.7027385 9.3845558 0.56709737 6.1713156e-39
-2.5449913 9.3421335 0.56383628 4.7941601e-39
-2.8043339 9.5350876 0.51727384 1.7329522e-38
-2.7270148 9.4807787 0.57942063 5.7103431e-39
-2.5925303 9.4972382 0.45038417 6.1760184e-39
-2.8056703 9.7709112 0.50009888 1.4194868e-38
-2.7251081 9.6421795 0.52317524 7.4678432e-39
-2.586879 9.6210403 0.54571503 4.4242958e-39
-2.8019428 9.9372168 0.41377372 1.3637344e-38
-2.6998498 9.8914499 0.49721217 8.1121308e-39
-2.5764771 9.8831825 0.50686675 4.9792787e-39
-2.8075593 10.138447 0.50368762 1.3821025e-38
-2.7243216 10.112519 0.50480366 5.5266707e-39
-2.5976629 10.073809 0.54339933 6.1771044e-39
-2.8081815 10.385475 0.46407154 8.6638515e-39
-2.7320483 10.300391 0.55085164 3.6852959e-39
-2.599514 10.363393 0.45186737 5.6246467e-39
-2.8111815 10.509874 0.44377133 8.4801819e-39
-2.7296379 10.456622 0.57228845 4.9771249e-39
-2.8095243 10.695271 0.49188006 1.0971269e-38
-2.7363892 10.704772 0.55022687 5.1622308e-39
-2.807842 10.921446 0.48093873 1.1616284e-38
-2.7449524 10.881867 0.57137543 5.2544278e-39
-2.8283401 11.115579 0.49547717 1.1616284e-38
-2.7496433 11.029452 0.57953984 5.2544292e-39
-2.8084643 11.319164 0.50730789 1.2077265e-38
-2.7587597 11.282258 0.5452072 5.4388233e-39
-2.8074341 11.47092 0.55337304 1.2077625e-38
-2.7704213 11.458591 0.57805622 5.622853e-39
-2.8082747 11.745642 0.49855658 8.7582233e-39
-2.7865129 11.697726 0.50900191 5.6235719e-39
-2.8041961 11.958097 0.56697744 5.8079617e-39
-2.7924953 11.864494 0.54086256 5.6235719e-39
-2.8057122 12.053325 0.5771293 5.6235719e-39
-2.797246 12.057694 0.57449651 5.7154088e-39
-2.8108566 12.314395 0.53504854 5.5313749e-39
-2.795469 12.21893 0.4961209 5.5313735e-39
-2.8194141 12.482914 0.56149721 5.4388219e-39
-2.797014 12.43323 0.52355975 5.5317364e-39
-3.0045047 12.713672 0.49914086 1.4104139e-38
-2.8286905 12.632689 0.58763319 5.346985e-39
-2.8373673 12.880834 0.53304809 5.1625951e-39
-3.0012991 13.122718 0.46262762 1.4105213e-38
-2.8534238 13.064541 0.57316321 4.9785654e-39
-3.0045724 13.35696 0.53606147 1.42896e-38
-2.8741086 13.295907 0.51361048 4.9789185e-39
-3.0056243 13.505871 0.51697743 1.428996e-38
-2.8937492 13.495308 0.55227917 4.9785598e-39
-3.0038061 13.752302 0.50032949 1.4289961e-38
-2.9041543 13.650767 0.58388525 4.9785626e-39
-3.0042779 13.919606 0.52704298 1.4566545e-38
-2.9386961 13.904146 0.52752364 8.3890821e-39
-3.0043592 14.1441 0.51954991 1.4750938e-38
-2.9488914 14.090075 0.56681275 8.5734733e-39
-3.0058873 14.384446 0.48427224 1.4658741e-38
-2.9585814 14.226593 0.58815849 9.1259268e-39
-3.0028057 14.546899 0.58159047 1.189252e-38
-2.9931266 14.423789 0.5888809 1.1707765e-38
-3.0033023 14.658383 0.58876872 1.2998146e-38
-2.9920571 14.709315 0.58104414 1.5210833e-38
-3.0049903 14.904126 0.54538846 1.493389e-38
-2.9958379 14.89897 0.56468165 1.530267e-38
-3.0190098 15.158824 0.585446 1.5118641e-38
-2.9975548 15.044672 0.51320297 1.5210834e-38
-3.0233164 15.313037 0.56247556 1.5026086e-38
-2.9989929 15.299741 0.5244984 1.5118996e-38
-3.0305185 15.514473 0.5304091 1.4749857e-38
-3.0383062 15.756008 0.5692327 1.4196325e-38
-3.0348477 15.845609 0.55847609 1.4103402e-38
-2.4016697 2.138567 0.76980269 5.0675226e-39
-2.3817813 2.1497395 0.78044885 4.4217917e-39
-2.3818622 2.2262137 0.7870248 4.0530148e-39
-2.358243 2.4076202 0.73114401 7.8341034e-39
-2.5332592 4.365025 0.71976817 1.087549e-38
-2.5327101 4.4953823 0.75278562 1.1336109e-38
-2.5367267 4.6662254 0.78009164 1.1889287e-38
-2.5470042 4.892715 0.73646522 1.0784008e-38
-2.5496032 5.0833802 0.76935482 1.1429018e-38
-2.5549643 5.2293634 0.78727025 1.1797799e-38
-2.5614486 5.4795561 0.76368028 1.1522292e-38
-2.6066589 5.7759428 0.70936555 1.4473276e-38
-2.5691292 5.6326027 0.7879017 1.1614486e-38
-2.6115537 5.8930564 0.7060793 1.456547e-38
-2.5817006 5.8889313 0.73918623 1.0323028e-38
-2.6020143 6.106277 0.78020501 1.0323027e-38
-2.5904441 6.0762043 0.7721653 1.0322669e-38
-2.6038365 6.3436604 0.76444411 1.0230835e-38
-2.593786 6.2259741 0.78214699 1.0046438e-38
-2.6057625 6.5003653 0.76375228 9.6776615e-39
-2.5957496 6.4657087 0.75829762 9.6780202e-39
-2.6121252 6.641892 0.78612769 9.4017892e-39
-2.5828071 6.6963301 0.70944184 9.4014319e-39
-2.6054175 6.8607974 0.70851243 8.9390076e-39
-2.5917666 6.8338623 0.73617411 8.8475323e-39
-2.6628568 7.0821357 0.69897264 1.1891797e-38
-2.66926 7.2993979 0.70100993 1.0969837e-38
-2.6859438 7.5274262 0.70019841 9.4954226e-39
-2.6846728 7.7594013 0.70446557 8.1117679e-39
-2.6952775 7.9904666 0.76373601 6.8199515e-39
-2.6971159 8.0827808 0.71256852 5.6214041e-39
-2.5194926 8.0681429 0.63839269 9.230339e-40
-2.6595023 8.3466034 0.75006777 3.0406453e-39
-2.5343087 8.302022 0.68898803 1.2914563e-39
-2.6914623 8.5230904 0.70196307 3.6863791e-39
-2.5749021 8.452261 0.69544262 1.4747657e-39
-2.7317562 8.6169806 0.7321316 1.0964405e-38
-2.8115177 9.3742056 0.6695869 1.8806091e-38
-2.6812325 9.3778858 0.69115853 6.5422632e-39
-2.5416336 9.340991 0.66001379 4.6090416e-39
-2.8048308 9.5826483 0.7612114 1.7886668e-38
-2.7339075 9.4995823 0.76522315 5.5266651e-39
-2.5846307 9.4844475 0.70984662 4.9760249e-39
-2.8046856 9.746376 0.78323209 1.2356012e-38
-2.7466099 9.6344748 0.78933406 8.4801903e-39
-2.5921152 9.649045 0.69141549 4.0562252e-39
-2.8019774 9.9209681 0.76999974 1.2905948e-38
-2.7483234 9.9091892 0.77392882 6.9117786e-39
-2.5808315 9.8898678 0.66528863 4.7034078e-39
-2.8065844 10.149697 0.75409341 1.4281996e-38
-2.7617505 10.054657 0.78244811 6.8192214e-39
-2.5918005 10.046235 0.65659058 5.1636685e-39
-2.8106871 10.30374 0.73694217 1.2072193e-38
-2.7590091 10.304502 0.74083889 3.408702e-39
-2.8062723 10.53482 0.71323842 1.0047869e-38
-2.7622969 10.473483 0.77277601 4.701617e-39
-2.8092716 10.726424 0.70231736 1.1063823e-38
-2.7656431 10.656998 0.75889945 4.8863628e-39
-2.8151457 10.894007 0.67586029 1.1340055e-38
-2.7647822 10.899076 0.75791425 5.1625895e-39
-2.8280292 11.124656 0.70811617 1.1616642e-38
-2.7849915 11.046402 0.78423876 5.1629511e-39
-2.8149478 11.368267 0.63389206 1.2169462e-38
-2.7775788 11.287672 0.74185854 5.6235691e-39
-2.8053451 11.493947 0.77534598 5.7164822e-39
-2.7940371 11.442204 0.7764709 5.7164808e-39
-2.8031533 11.765911 0.77436328 6.914668e-39
-2.7829382 11.691918 0.71889949 5.9001574e-39
-2.8052113 11.939713 0.76559365 5.9001574e-39
-2.794461 11.862445 0.75389147 5.9001588e-39
-2.8091717 12.043518 0.7833395 5.8083205e-39
-2.7981691 12.018283 0.7378071 5.8083205e-39
-2.8183124 12.294603 0.72206825 5.8076044e-39
-2.7966917 12.242188 0.69293618 5.8083247e-39
-2.8286684 12.486805 0.7591176 5.5313763e-39
-2.796041 12.43626 0.68729711 5.716485e-39
-2.8438923 12.640106 0.78462863 5.3469836e-39
-2.844964 12.893207 0.74184012 5.1629525e-39
-3.0008705 13.093076 0.61703104 1.4473995e-38
-2.8515756 13.062961 0.77117091 5.0703981e-39
-3.0051782 13.343125 0.71845943 1.4289602e-38
-2.8712163 13.250953 0.75698483 4.9782039e-39
-3.003798 13.576752 0.77133822 1.4198121e-38
-2.883131 13.489849 0.75459427 5.0700408e-39
-3.0036073 13.747083 0.71668768 1.4566548e-38
-2.8858621 13.639433 0.78273946 5.0703995e-39
-3.0015144 13.963031 0.74745393 1.4843129e-38
-2.9184978 13.893958 0.72577208 5.2551467e-39
-3.0052941 14.120951 0.71791184 1.5027526e-38
-2.9263279 14.080145 0.76595694 5.439538e-39
-3.0045171 14.377221 0.7033782 1.3552035e-38
-2.9438996 14.236563 0.79033589 5.8079617e-39
-3.0023036 14.529839 0.72238785 1.2260218e-38
-2.9720943 14.491637 0.74572426 9.402155e-39
-3.0040982 14.711453 0.76194471 1.2444608e-38
-2.9836416 14.661628 0.77834815 9.4028724e-39
-3.009239 14.857616 0.78487152 1.2536445e-38
-2.9977772 14.826185 0.75644726 1.2997785e-38
-3.0275383 15.057071 0.77902186 1.2445695e-38
-2.9974141 15.088871 0.76295853 1.5488147e-38
-3.0079138 15.39227 0.72306347 1.484242e-38
-2.9975212 15.39037 0.74518913 1.484278e-38
-3.0178826 15.493411 0.73254436 1.4750223e-38
-2.9983916 15.40597 0.74723226 1.4934979e-38
-3.0288095 15.769814 0.75320649 1.3736789e-38
-3.0400162 15.815488 0.75254619 1.1430453e-38
-2.4042568 2.1517892 0.93802786 5.0675184e-39
-2.3795147 2.1746862 0.95252281 4.3317443e-39
-2.4057844 2.20979 0.88929564 4.1469943e-39
-2.3818665 2.2774978 0.97022259 4.1473628e-39
-2.5342612 4.3497686 0.99158376 1.0412355e-38
-2.5314953 4.4922175 0.93334734 1.1426866e-38
-2.5389154 4.6874309 0.96633828 1.2164788e-38
-2.5439732 4.8279643 0.99000961 1.2626125e-38
-2.5537 5.0887871 0.95319253 1.3733193e-38
-2.5672204 5.2525892 0.98189139 1.4287083e-38
-2.5699039 5.4940715 0.94405341 1.2536439e-38
-2.6050408 5.7652493 0.90049011 1.5487429e-38
-2.5833385 5.6543174 0.96897405 1.2813381e-38
-2.6022487 5.9853201 0.94003206 1.1244626e-38
-2.5845852 5.8916373 0.93404359 1.2168377e-38
-2.6061068 6.0640149 0.95931041 1.2168376e-38
-2.5955503 6.0255961 0.96260697 1.2169093e-38
-2.6078467 6.31602 0.91484386 1.0323387e-38
-2.5965781 6.2487812 0.91611362 1.0507418e-38
-2.6193702 6.4425526 0.94146204 1.0139712e-38
-2.5971065 6.4672675 0.85251117 9.9546071e-39
-2.6151578 6.7025743 0.90601486 9.3099565e-39
-2.596586 6.6342092 0.88843328 9.4943464e-39
-2.6286299 6.84132 0.92940247 8.9418887e-39
-2.5945163 6.8342433 0.89703953 8.9400894e-39
-2.6573939 7.0925703 0.89744061 1.2168383e-38
-2.6656761 7.2964587 0.89979678 1.1338618e-38
-2.6781814 7.5096526 0.9002223 1.0969478e-38
-3.0279868 7.7024994 0.90318137 7.186562e-39
-2.6796701 7.7428389 0.90294403 1.0230831e-38
-2.6879001 7.9874325 0.91304582 9.032648e-39
-2.6928113 8.0952024 0.90098941 7.5575137e-39
-2.8058853 8.3052101 0.90919137 5.9869174e-39
-2.6228514 8.3798332 0.82987332 1.5665998e-39
-2.5682545 8.3628464 0.92006731 1.3829344e-39
-2.6888282 8.5270004 0.9041937 3.8711262e-39
-2.5847852 8.4591112 0.91983408 1.6595143e-39
-2.7402337 8.6411982 0.921175 7.739733e-39
-2.8309138 9.354084 0.93682867 1.6034084e-38
-2.763896 9.3790922 0.85103261 1.4833717e-38
-2.5692089 9.3432608 0.82394439 5.0660513e-39
-2.804471 9.5370798 0.92188406 1.5481286e-38
-2.7398975 9.5274858 0.90029728 5.4333849e-39
-2.594414 9.4844646 0.91538215 4.6061479e-39
-2.8034549 9.7761517 0.9645915 1.5018484e-38
-2.7477663 9.6959724 0.90697521 5.1575168e-39
-2.5872915 9.7039528 0.86439049 3.2271778e-39
-2.8045943 9.9105291 0.91539377 1.4742613e-38
-2.7611811 9.843648 0.93884403 4.6047032e-39
-2.5933752 9.880435 0.87522399 4.3349813e-39
-2.8031461 10.141802 0.88666773 1.3911049e-38
-2.7633142 10.102109 0.90335441 4.8809327e-39
-2.5955005 10.089725 0.90343881 7.1001397e-39
-2.8041992 10.295119 0.88944119 1.1794525e-38
-2.7776506 10.249036 0.92374879 4.5125104e-39
-2.8051288 10.543829 0.90915376 1.0325175e-38
-2.7599814 10.497782 0.90117723 4.7019757e-39
-2.804045 10.729408 0.87090832 5.7164808e-39
-2.7778928 10.65334 0.89899641 4.7945287e-39
-2.8190455 10.919716 0.88386428 1.1340055e-38
-2.7585883 10.901862 0.90004605 5.2551467e-39
-2.8086307 11.138738 0.85613859 6.9150254e-39
-2.7773409 11.063303 0.90061867 5.4395366e-39
-2.8394389 11.301609 0.89455956 1.2170176e-38
-2.775557 11.301261 0.90032923 5.9005161e-39
-2.8049471 11.556408 0.88272643 6.0852633e-39
-2.7898493 11.473788 0.91205192 6.0852661e-39
-2.8129535 11.615922 0.87618417 5.9937865e-39
-2.7877402 11.695037 0.89646441 6.4529738e-39
-2.8046241 11.921845 0.91267687 6.3614943e-39
-2.7963583 11.874904 0.88100201 6.3611355e-39
-2.8151977 12.103604 0.90305805 6.1771016e-39
-2.7986031 12.022913 0.90502298 6.2692972e-39
-2.8296139 12.241668 0.92973435 6.0852633e-39
-2.7972734 12.240615 0.91364598 6.2693028e-39
-2.8345542 12.50299 0.89920866 5.8079631e-39
-2.7971711 12.456109 0.92504179 5.9930747e-39
-2.8475988 12.699572 0.90504169 5.439538e-39
-2.8647087 12.876324 0.93244404 5.1633098e-39
-3.0125413 13.142491 0.84037101 1.4474715e-38
-2.8617523 13.104544 0.89871854 5.0707596e-39
-3.0070684 13.313189 0.9207297 1.4290677e-38
-2.8752301 13.297043 0.91812366 4.886367e-39
-3.0013294 13.550834 0.9019981 1.4382155e-38
-2.8927572 13.469856 0.94826847 4.794886e-39
-3.0041649 13.74866 0.94349003 1.484385e-38
-2.8970532 13.701968 0.90375185 5.1625951e-39
-3.0036023 13.928823 0.95788193 1.5396304e-38
-2.9098623 13.892745 0.93109411 5.2551467e-39
-3.0022957 14.140396 0.88522273 1.5212273e-38
-2.926096 14.045009 0.95761198 5.3477011e-39
-3.0098362 14.339417 0.8960641 1.5580697e-38
-2.9448774 14.298668 0.90822113 5.9005147e-39
-3.0031486 14.551591 0.87141848 1.2721195e-38
-2.960114 14.485676 0.94406891 5.9934278e-39
-3.0020425 14.745801 0.93345052 9.9567637e-39
-2.9900494 14.706751 0.90100443 9.6798181e-39
-3.0073605 14.91814 0.92731899 9.6801754e-39
-2.9964328 14.839213 0.92132771 9.6801768e-39
-3.0222478 15.01467 0.93920928 9.6805327e-39
-2.9948671 15.091228 0.91646856 1.6133516e-38
-3.0453253 15.223469 0.94995731 1.2722267e-38
-2.9970188 15.371339 0.92142445 1.5579987e-38
-3.059804 15.489181 0.95972443 1.2629361e-38
-2.9983916 15.42557 0.94587773 1.5580344e-38
-3.071732 15.638673 0.98689795 1.2260222e-38
-2.9986432 15.641507 0.94240433 1.5302679e-38
-3.0309227 15.828918 0.90656734 1.2629361e-38
-2.4044561 2.1519184 1.0384364 4.8838362e-39
-2.378849 2.1774814 1.094649 3.6863847e-39
-2.4024122 2.2974012 1.1681308 2.9477462e-39
-2.377028 2.2799609 1.1001484 3.9633317e-39
-2.5390713 4.3686023 1.098188 1.0413427e-38
-2.5402582 4.4860263 1.1170812 1.0782567e-38
-2.5443223 4.7072949 1.0994211 1.2257344e-38
-2.5490503 4.8793159 1.1036141 1.2995625e-38
-2.5575488 5.1069608 1.1002785 1.4194174e-38
-2.5627625 5.2616191 1.0983577 1.4840259e-38
-2.5712738 5.504344 1.1005504 1.3273647e-38
-2.6047108 5.7465291 1.1070689 1.6409386e-38
-2.5770738 5.6546788 1.0977731 1.3458754e-38
-2.6012466 5.9884086 1.0289997 1.2260571e-38
-2.5851548 5.9043159 1.1022856 1.2997779e-38
-2.6020699 6.0594902 1.0444515 1.253752e-38
-2.5920637 6.040647 1.0975229 1.2906301e-38
-2.6054995 6.3084216 1.1022687 1.1060952e-38
-2.5977728 6.288589 1.0922073 1.1060952e-38
-2.6106479 6.4355354 1.0958474 1.0692528e-38
-2.5990646 6.4161377 1.1519359 1.0968755e-38
-2.6147397 6.7049184 1.1003058 9.6783789e-39
-2.5908942 6.6888127 1.1012266 9.9542498e-39
-2.6206701 6.8367562 1.0987014 9.2177595e-39
-2.5960135 6.8386741 1.0995108 9.4003445e-39
-2.6153991 7.1559124 1.1760871 8.3890806e-39
-2.5969722 7.0502763 1.1637635 8.4823595e-39
-2.6238334 7.3194032 1.1657835 8.1110518e-39
-2.5984006 7.2788305 1.1697195 8.6627767e-39
-2.6292646 7.5012822 1.1702532 8.0192149e-39
-3.0311115 7.7213607 1.0467046 7.9223137e-39
-2.6298077 7.6430917 1.1808485 8.0199338e-39
-2.6487124 7.8851337 1.1933627 8.5702251e-39
-2.6525519 8.0388317 1.1914227 1.0688183e-38
-2.5106332 8.0997438 1.1913172 1.7535022e-39
-2.8290703 8.3918734 1.0855471 1.1890687e-38
-2.6956172 8.2990408 1.097586 7.3731267e-39
-2.530663 8.3062181 1.1470811 2.304518e-39
-2.8085737 8.4687157 1.069724 1.1613019e-38
-2.6884475 8.5459585 1.0961895 4.2399116e-39
-2.5809433 8.5252829 1.1132352 2.0286528e-39
-2.3961916 8.5110722 1.1930363 6.2671182e-39
-2.654006 8.6057491 1.1874784 1.9357411e-39
-2.4256496 8.6304646 1.1655604 6.5429806e-39
-2.4934919 8.973527 1.1850067 8.2028649e-39
-2.5137548 9.1180887 1.1752176 6.4511507e-39
-2.8042085 9.3757906 1.1612178 1.5297596e-38
-2.6459088 9.3824501 1.0768483 7.6475177e-39
-2.5534933 9.3645382 1.1597281 4.6061577e-39
-2.8027203 9.5497026 1.1732188 1.5020288e-38
-2.7449849 9.5323229 1.0988742 5.6177733e-39
-2.5724564 9.4990063 1.1370364 3.86932e-39
-2.8032033 9.7685461 1.1324143 1.4557866e-38
-2.7477574 9.7053719 1.0993466 5.1571567e-39
-2.5857167 9.739069 1.1319606 3.0435278e-39
-2.8077269 9.9142189 1.1028949 1.4281644e-38
-2.7550447 9.8470325 1.0984954 4.5114314e-39
-2.5916908 9.8981209 1.1458328 4.7037722e-39
-2.802007 10.139818 1.0589994 1.3634462e-38
-2.7609978 10.102276 1.0989754 4.8802125e-39
-2.5930464 10.100623 1.0241244 8.8522196e-39
-2.8043363 10.329795 1.0850316 1.1796697e-38
-2.7691483 10.245013 1.0989785 4.2352074e-39
-2.8241258 10.502763 1.1675962 8.7571303e-39
-2.7563972 10.488201 1.1020243 4.7019757e-39
-2.5815163 10.450027 1.1640242 1.2354561e-38
-2.8142645 10.735871 1.088966 1.1156023e-38
-2.7654045 10.638613 1.0943817 4.8863684e-39
-2.8249726 10.932701 1.121614 1.1617004e-38
-2.7562091 10.902558 1.1012291 5.3477025e-39
-2.8435662 11.129997 1.1034166 1.1985786e-38
-2.7656202 11.047051 1.095922 5.6239334e-39
-2.8602686 11.308896 1.1352385 1.2170178e-38
-2.7788653 11.305176 1.1010474 6.1771044e-39
-2.8031254 11.582529 1.0289259 6.6380797e-39
-2.7854948 11.485149 1.0998816 6.6380839e-39
-2.8034067 11.763695 1.1372429 7.0068679e-39
-2.7906785 11.690923 1.0973665 6.9143135e-39
-2.806596 11.909026 1.0979407 6.9146708e-39
-2.7975256 11.865201 1.1089652 7.0065063e-39
-2.8123527 12.102427 1.0992296 6.7302782e-39
-2.7958038 12.043675 1.1320941 7.0068665e-39
-2.8212872 12.236458 1.0969598 6.5462442e-39
-2.7957566 12.229173 1.065513 6.6384413e-39
-2.839287 12.500772 1.1010627 6.268584e-39
-2.7980785 12.4234 1.0582405 6.1778247e-39
-2.8498902 12.704856 1.1000252 5.7157675e-39
-3.0070846 12.964289 1.1511692 1.5120083e-38
-2.8578093 12.871479 1.0970188 5.2555082e-39
-2.863605 13.10187 1.0978242 5.1625951e-39
-3.0070674 13.333229 1.1467354 1.5027886e-38
-2.8757684 13.305169 1.1012504 4.9785626e-39
-3.0026746 13.522991 1.069343 1.4843492e-38
-2.8845811 13.462789 1.0975158 4.886367e-39
-3.0021002 13.765689 1.12479 1.5397022e-38
-2.9008093 13.705239 1.099887 5.1625965e-39
-3.0029747 13.954743 1.1277009 1.5857641e-38
-2.9099102 13.905562 1.1007744 5.3473451e-39
-3.0081952 14.148249 1.1570668 1.6410819e-38
-2.9180136 14.038537 1.0937158 5.5320937e-39
-3.0020015 14.377095 1.1573783 1.4473632e-38
-2.9475627 14.306535 1.101018 6.2692986e-39
-3.0027072 14.543667 1.0828778 1.3366567e-38
-2.9553618 14.485803 1.0982885 6.45405e-39
-3.0023851 14.764597 1.1327704 1.0601058e-38
-2.9929161 14.699466 1.0946162 1.0416667e-38
-3.0046117 14.928095 1.1003613 1.0417382e-38
-2.9973335 14.857122 1.0995002 1.0417385e-38
-3.0140326 15.009553 1.0382811 1.0141514e-38
-2.9928665 15.090094 1.1020136 1.6963277e-38
-3.0359519 15.212605 1.0895317 1.3275445e-38
-2.9962184 15.350455 1.1009915 1.6225357e-38
-3.0639443 15.505378 1.1002259 1.3090698e-38
-2.9980869 15.480688 1.1249515 1.5856931e-38
-3.0788505 15.704911 1.1029284 1.2444609e-38
-2.9997339 15.644238 1.1217695 1.5487781e-38
-3.0763366 15.857936 1.1320186 1.1891433e-38
-2.4104493 2.1721897 1.2914557 2.8573457e-39
-2.3830037 2.1811085 1.2979629 2.5811217e-39
-2.4012873 2.3010859 1.3211801 3.2239702e-39
-2.3777788 2.2750268 1.2984678 3.9629758e-39
-2.3707609 2.4027226 1.2821676 9.8620457e-39
-2.5448301 4.3723569 1.2973897 1.0320874e-38
-2.5436709 4.4895749 1.3002166 1.0782211e-38
-2.5511429 4.7092013 1.2995117 1.2257345e-38
-2.5516682 4.8788586 1.2996527 1.3363331e-38
-2.5615559 5.1066322 1.2995118 1.4655153e-38
-2.5615013 5.2555332 1.2992538 1.5577469e-38
-2.5747828 5.5058875 1.3003558 1.4287439e-38
-2.601084 5.7697067 1.3599416 1.3919378e-38
-2.5755634 5.649343 1.2993587 1.4748776e-38
-2.6035299 5.9666276 1.3026654 1.2720119e-38
-2.5897536 5.9073868 1.3001506 1.4103769e-38
-2.6032205 6.0694361 1.3365757 1.3550235e-38
-2.590786 6.0377026 1.2987608 1.4103766e-38
-2.6070721 6.3044815 1.2998195 1.1890355e-38
-2.598434 6.3237762 1.2875743 1.1705964e-38
-2.6076083 6.4293675 1.3023189 1.1429734e-38
-2.5977664 6.4344249 1.254652 1.1153147e-38
-2.6170847 6.7076755 1.2987987 9.9553274e-39
-2.5926132 6.6911616 1.2974018 1.0231558e-38
-2.6169815 6.8307152 1.3011447 9.4021536e-39
-2.5963919 6.8373094 1.2784787 9.6772985e-39
-2.6197989 7.1638527 1.2885938 8.3890835e-39
-2.5880296 7.0594506 1.3180395 7.8384292e-39
-2.6300232 7.3332977 1.2995301 7.9277424e-39
-2.5930014 7.2641768 1.3612474 7.5614794e-39
-2.6304386 7.5077028 1.2986395 7.835188e-39
-2.5936673 7.414196 1.2091529 8.0206316e-39
-3.0356936 7.7045908 1.3326604 9.8587807e-39
-2.6320267 7.6470876 1.3029084 8.1114134e-39
-2.6497111 7.9062085 1.2981921 8.6645857e-39
-2.8201275 8.1890326 1.3741937 1.2162213e-38
-2.6546147 8.0617275 1.3001466 9.2166749e-39
-2.5100815 8.1018972 1.2290649 1.6616695e-39
-2.8096662 8.3338394 1.2696545 1.1239889e-38
-2.6974168 8.3073292 1.3018106 8.4816336e-39
-2.5325797 8.3143816 1.3088267 2.3056012e-39
-2.8188188 8.422533 1.2471583 7.6460632e-39
-2.6894672 8.5593081 1.3009278 4.5164971e-39
-2.5874593 8.4724026 1.3038261 2.2130426e-39
-2.660753 8.6087351 1.3075638 1.9360984e-39
-2.4130371 8.6335487 1.2050728 4.7005198e-39
-2.8596342 8.9472513 1.2634988 1.5478716e-38
-2.4828913 8.9755888 1.2087536 4.8838334e-39
-2.8171589 9.1589394 1.233265 1.5295771e-38
-2.5077336 9.0797729 1.2020618 7.4649495e-39
-2.8057222 9.3814592 1.2184365 1.4927363e-38
-2.7555065 9.390687 1.3262242 1.6307759e-38
-2.5578632 9.3782663 1.2169545 5.4359282e-39
-2.8041718 9.5606346 1.2869669 1.5212271e-38
-2.7465549 9.5336056 1.2727188 5.3408291e-39
-2.5859764 9.5222416 1.2357293 4.6065277e-39
-2.8100643 9.757822 1.2124096 1.3450464e-38
-2.7466364 9.6741772 1.2632225 5.8028946e-39
-2.5878243 9.7019539 1.2173673 3.9636792e-39
-2.8086402 9.8936691 1.2154198 1.5940818e-38
-2.7502689 9.8413162 1.2226857 5.7103375e-39
-2.5864484 9.9166641 1.2073271 5.9015937e-39
-2.8094201 10.12816 1.2688082 1.2534957e-38
-2.7613206 10.120026 1.236124 5.4337548e-39
-2.5935683 10.112365 1.3806823 7.3774455e-39
-2.8174825 10.309545 1.2748694 1.0323004e-38
-2.7660539 10.235923 1.3023483 4.0501029e-39
-2.5975831 10.280393 1.2816387 7.2845268e-39
-2.8234079 10.470544 1.2782141 8.2039565e-39
-2.7582948 10.490296 1.3025632 4.5175873e-39
-2.5996318 10.454646 1.2032769 1.0050763e-38
-2.8411481 10.728124 1.3182887 1.0510289e-38
-2.7610822 10.627647 1.2988312 4.8863698e-39
-2.8385882 10.889801 1.3298347 1.1525166e-38
-2.7561734 10.903467 1.3003169 5.4395408e-39
-2.8383393 11.172555 1.2550054 1.2538963e-38
-2.7612653 11.038616 1.2999483 5.9005175e-39
-2.8154614 11.342481 1.2649833 1.3554197e-38
-2.7795274 11.306663 1.2986149 6.8221165e-39
-2.8118417 11.452241 1.282415 1.4015531e-38
-2.786298 11.483705 1.2995526 7.1912591e-39
-2.8035409 11.776149 1.2996552 7.467846e-39
-2.7917068 11.693638 1.3004861 7.467846e-39
-2.8084581 11.911021 1.2995487 7.467846e-39
-2.7982678 11.84041 1.264583 7.375649e-39
-2.8142822 12.102713 1.2990775 7.2834548e-39
-2.7926102 12.083842 1.3015827 7.3763693e-39
-2.8189714 12.227859 1.3022888 7.0994208e-39
-2.797477 12.268723 1.2389293 6.9153911e-39
-2.8431225 12.507918 1.3004742 6.6377266e-39
-2.7961156 12.42026 1.341391 6.7317187e-39
-2.8532965 12.708068 1.2994151 5.9923558e-39
-2.858434 12.865729 1.2998624 5.4395408e-39
-3.0130777 13.139351 1.3052924 1.5120445e-38
-2.8631086 13.105072 1.2995299 5.1629567e-39
-3.0090721 13.306066 1.2600355 1.5028246e-38
-2.8757896 13.306363 1.299946 4.8863684e-39
-3.0013249 13.494471 1.2812812 1.6134598e-38
-2.8820319 13.453642 1.2982342 4.8863656e-39
-3.0023582 13.784091 1.3377507 1.5489936e-38
-2.9002333 13.704807 1.2994037 5.1629567e-39
-3.0037537 13.900464 1.2928448 1.5858719e-38
-2.9116468 13.904648 1.2987626 5.4391834e-39
-3.0063586 14.167598 1.2866505 1.6596283e-38
-2.915674 14.029389 1.3011109 5.7161291e-39
-3.0017769 14.329753 1.3361679 1.3552396e-38
-2.9500587 14.307562 1.2987078 6.6380825e-39
-3.003861 14.551368 1.3008852 1.4197405e-38
-2.9563577 14.479634 1.2995687 7.0068665e-39
-3.0018079 14.753364 1.3185507 1.1338983e-38
-2.9936225 14.696304 1.296459 1.1154592e-38
-3.0044997 14.904815 1.3025254 1.1247147e-38
-2.9980981 14.86524 1.2891932 1.1246786e-38
-3.0305188 15.107809 1.3001157 1.4473631e-38
-2.991503 15.092946 1.3005942 1.7978149e-38
-3.0349498 15.20819 1.2835562 1.4197041e-38
-2.9963202 15.34111 1.3118949 1.6963643e-38
-3.0715575 15.505079 1.3007118 1.3736786e-38
-2.9973161 15.474302 1.2968329 1.6318269e-38
-3.0842674 15.70664 1.3002063 1.2905589e-38
-2.9978428 15.612193 1.2533827 1.5764734e-38
-3.0797985 15.865301 1.2995813 1.2260215e-38
-2.4052582 2.1627393 1.5143692 3.1335766e-39
-2.3854606 2.1844537 1.4944448 2.8580659e-39
-2.4025102 2.2924922 1.5262697 2.8551947e-39
-2.3810494 2.2782457 1.5013989 4.424314e-39
-2.4027033 2.4034224 1.5165762 6.7299138e-39
-2.3752346 2.4069974 1.5173343 1.0969469e-38
-2.546576 4.3743458 1.4931302 1.0045009e-38
-2.5466986 4.4912243 1.4998924 1.0506707e-38
-2.5528617 4.7073493 1.4997607 1.2350263e-38
-2.5565262 4.8814406 1.4992429 1.3548446e-38
-2.6032708 5.0815959 1.5325528 1.0417743e-38
-2.5633366 5.1079926 1.4990177 1.5208692e-38
-2.5631442 5.2551985 1.5 1.6407594e-38
-2.6024361 5.5924926 1.5425905 1.373535e-38
-2.5759242 5.5054107 1.4988999 1.539487e-38
-2.6011243 5.7510552 1.4947993 1.4842057e-38
-2.5767541 5.6492705 1.4997951 1.6040239e-38
-2.6013498 5.9224167 1.5136752 1.5487427e-38
-2.592005 5.9060454 1.5001134 1.5395231e-38
-2.6018813 6.0496368 1.5162514 1.5210837e-38
-2.591337 6.0348487 1.4987581 1.5303033e-38
-2.6089849 6.3060422 1.4984814 1.2629003e-38
-2.5987236 6.3291082 1.489314 1.2444611e-38
-2.6083474 6.4264679 1.5019931 1.2075828e-38
-2.5981224 6.4344149 1.4606096 1.1891434e-38
-2.6197436 6.7029409 1.4981318 1.0232277e-38
-2.5927081 6.6741261 1.5040481 1.0600704e-38
-2.6196802 6.8285146 1.4986244 9.586905e-39
-2.5958691 6.8465643 1.4899513 9.7698515e-39
-2.6256237 7.183373 1.4968504 8.2054097e-39
-2.5823431 7.0440269 1.5245626 7.6543981e-39
-2.6324804 7.3314075 1.4989384 7.6515198e-39
-2.5952609 7.2832665 1.4477801 7.4696453e-39
-2.632494 7.5032134 1.5018562 7.55932e-39
-2.6343691 7.6459966 1.4963785 7.8359055e-39
-2.6516681 7.9096293 1.4995584 8.8496987e-39
-2.8294442 8.1261377 1.5637881 1.1794504e-38
-2.6569555 8.0669146 1.5025564 9.5865392e-39
-2.8244839 8.2408619 1.4909389 1.1978895e-38
-2.6261091 8.3497 1.4690994 3.9629687e-39
-2.5785294 8.3625479 1.4421343 2.5807448e-39
-2.6897411 8.5732145 1.4958687 4.6090514e-39
-2.5886953 8.5516605 1.5417494 2.8573316e-39
-2.1091135 8.4701529 1.4379642 3.9604226e-39
-2.7013056 8.6040897 1.5365233 1.7520687e-39
-2.4161615 9.1650448 1.5672784 4.6119255e-39
-2.815634 9.390481 1.5606416 1.6686326e-38
-2.7534437 9.3937902 1.5365728 1.6860212e-38
-2.4920337 9.3299122 1.5536101 3.5027025e-39
-2.8077509 9.4971342 1.5264778 1.9363602e-38
-2.7498856 9.5353336 1.5009336 5.7092515e-39
-2.5634604 9.5359879 1.4731041 3.9640365e-39
-2.8018532 9.7391357 1.5040493 1.5858733e-38
-2.739372 9.6356716 1.4939592 4.237371e-39
-2.5707164 9.6563368 1.5073395 3.6870965e-39
-2.8133049 9.9440651 1.5373949 1.5758204e-38
-2.6951129 9.8909063 1.5519142 7.9280955e-39
-2.5883212 9.8793526 1.5617313 4.8877991e-39
-2.8063385 10.125629 1.5545471 1.3824272e-38
-2.763494 10.192722 1.5279112 3.9582688e-39
-2.5937881 10.102301 1.4926362 5.6257271e-39
-2.8072793 10.300476 1.5599809 9.5861637e-39
-2.7657797 10.231919 1.4969645 4.0504644e-39
-2.5956914 10.219451 1.5260447 6.0856276e-39
-2.8134613 10.509846 1.5057373 9.8645554e-39
-2.758698 10.494588 1.5003567 4.5175901e-39
-2.8330505 10.748917 1.4781588 1.1248213e-38
-2.7600336 10.623594 1.500966 4.8863712e-39
-2.8376007 10.907368 1.4856257 1.1893944e-38
-2.7555938 10.903545 1.4976871 5.6239348e-39
-2.8503881 11.109332 1.4979024 1.263151e-38
-2.7589686 11.032531 1.5019951 6.0849116e-39
-2.8633609 11.305552 1.512747 1.355383e-38
-2.7810588 11.303823 1.5011747 7.1916207e-39
-2.8024793 11.573977 1.4835498 7.9291843e-39
-2.785357 11.479039 1.4998779 7.7444357e-39
-2.804641 11.775749 1.5064164 8.2976095e-39
-2.7914133 11.681626 1.4956803 8.2054125e-39
-2.8086414 11.911456 1.5014864 8.2976095e-39
-2.7974072 11.827694 1.5001484 8.2976095e-39
-2.8154864 12.105 1.4970124 8.0210226e-39
-2.7937312 12.077559 1.4939508 8.1135784e-39
-2.8193953 12.225489 1.502501 7.7447944e-39
-2.7933018 12.256391 1.5158787 7.5614808e-39
-2.8433535 12.506281 1.4986994 7.1912619e-39
-2.8548477 12.704536 1.5007439 6.36186e-39
-2.859709 12.860383 1.4991281 5.6242964e-39
-3.0071182 13.164209 1.4270271 1.5212285e-38
-2.8627861 13.107149 1.4984083 5.2551537e-39
-3.0053644 13.328418 1.4962801 1.5120443e-38
-2.8746963 13.30585 1.5006157 4.7945343e-39
-3.0061135 13.574034 1.5084894 1.5489936e-38
-2.8810565 13.44916 1.4978386 4.7023387e-39
-3.0047674 13.766284 1.553237 1.6227146e-38
-2.8990211 13.705029 1.500693 5.2547964e-39
-3.0024726 13.961014 1.5653886 1.6872514e-38
-2.9112539 13.905766 1.4984969 5.531742e-39
-3.0016332 14.136658 1.479773 1.3000663e-38
-2.9154494 14.026534 1.5002644 5.9008832e-39
-3.0016711 14.318759 1.4528008 1.4105571e-38
-2.949928 14.305223 1.4999123 7.0994236e-39
-3.0028992 14.548438 1.5070277 1.5304119e-38
-2.9568524 14.476192 1.4998753 7.5604018e-39
-3.0024564 14.758487 1.4905764 1.2261663e-38
-2.9940064 14.695805 1.500648 1.2169469e-38
-3.0051336 14.901073 1.4995956 1.2354216e-38
-2.9978821 14.854262 1.4999385 1.2354216e-38
-3.0314906 15.103664 1.4988464 1.5672538e-38
-2.9925604 15.091849 1.4952308 1.9361444e-38
-3.0372586 15.20404 1.5072392 1.5488148e-38
-2.9934573 15.332453 1.5043528 1.7978155e-38
-3.0797908 15.505589 1.4999607 1.4659464e-38
-2.9965422 15.464263 1.500928 1.7056556e-38
-3.0895846 15.705745 1.4997474 1.3367649e-38
-2.9978971 15.619052 1.4449689 1.60424e-38
-3.0858488 15.867138 1.5002337 1.2721917e-38
-2.4037032 2.1792555 1.749249 2.4882086e-39
-2.3888285 2.1871364 1.6961138 3.3176134e-39
-2.4036243 2.3006279 1.7137827 3.4087272e-39
-2.383343 2.2797 1.6996533 5.0700422e-39
-2.4007249 2.416733 1.6733925 1.2169082e-38
-2.3801589 2.4157379 1.6984106 1.2166936e-38
-2.5495431 4.3785458 1.6972086 9.7687851e-39
-2.5485015 4.4937449 1.699061 1.0137926e-38
-2.5543442 4.7072496 1.6988305 1.1981483e-38
-2.5583827 4.8827972 1.7007254 1.354845e-38
-2.5628204 5.1048684 1.6988569 1.5485281e-38
-2.5639751 5.2564764 1.70014 1.7052966e-38
-2.602562 5.5751734 1.6825137 1.7885598e-38
-2.5750668 5.5056314 1.6991891 1.6685973e-38
-2.6019835 5.7804694 1.7115096 1.7146595e-38
-2.5769975 5.6501908 1.7004632 1.7607928e-38
-2.601855 5.9147325 1.7011591 1.7055115e-38
-2.5931771 5.9048591 1.6983576 1.7055115e-38
-2.602777 6.0428495 1.7180669 1.6963278e-38
-2.5945234 6.0399742 1.6991249 1.6778887e-38
-2.6102414 6.3046222 1.6989745 1.364316e-38
-2.5975373 6.2686067 1.7137102 1.3827192e-38
-2.6113546 6.4288092 1.7010078 1.2721202e-38
-2.5889285 6.5059414 1.7025701 1.1892166e-38
-2.6213918 6.7035594 1.6993377 1.050851e-38
-2.5921154 6.6740608 1.6980312 1.0785457e-38
-2.6225684 6.8282504 1.7007937 9.4954352e-39
-2.5964732 6.859858 1.712599 9.6776601e-39
-2.6278899 7.1832504 1.7080632 8.0210198e-39
-2.5901253 7.0549464 1.6940231 7.5618437e-39
-2.6332045 7.3409491 1.6990826 7.2827387e-39
-2.5967562 7.2248192 1.6133121 7.1934199e-39
-2.6329272 7.5063953 1.7001749 7.0057903e-39
-2.9962456 7.6732121 1.7415216 1.4743664e-38
-2.6359563 7.6491127 1.6999909 7.1905417e-39
-3.0782599 7.8101864 1.6804852 1.1793415e-38
-2.6529264 7.9057484 1.7003151 8.2968878e-39
-2.8352332 8.1225929 1.6018075 1.2347327e-38
-2.659559 8.0715342 1.7031081 9.4943464e-39
-2.8237023 8.2406855 1.6871083 1.1980338e-38
-2.7012942 8.298564 1.6974502 8.7578632e-39
-2.690326 8.5751963 1.6954206 5.2547852e-39
-2.5922642 8.5965109 1.6471443 3.1335612e-39
-2.6841633 8.6035604 1.7287998 4.0555315e-39
-2.5924866 8.647089 1.7371331 3.3175937e-39
-2.3751497 8.9231215 1.7489773 3.2279148e-39
-2.8053684 9.3839912 1.6248676 8.7546009e-39
-2.7508318 9.3920908 1.6910751 1.8150586e-38
-2.506932 9.3714161 1.6571087 3.2264813e-39
-2.8041339 9.5018663 1.6681907 1.9175961e-38
-2.7491772 9.5414524 1.6958673 6.1698723e-39
-2.5712154 9.545845 1.6659799 4.3321002e-39
-2.8039184 9.704196 1.6679714 1.8622794e-38
-2.7389994 9.6394987 1.6364523 4.3299296e-39
-2.5842023 9.6999521 1.6905959 3.1335598e-39
-2.8050876 9.9329338 1.715486 1.3269642e-38
-2.697891 9.9195509 1.6659887 7.7437056e-39
-2.5795686 9.9064827 1.6500729 5.1647503e-39
-2.8030391 10.096454 1.6800035 1.3825351e-38
-2.7663507 10.196595 1.6931595 4.0508246e-39
-2.5895102 10.090663 1.6772617 5.4413372e-39
-2.8089855 10.292612 1.6999421 9.3099397e-39
-2.7651627 10.229884 1.6984861 3.9593492e-39
-2.5976973 10.246229 1.6950603 6.1785421e-39
-2.8197279 10.529183 1.695663 9.402141e-39
-2.7568412 10.496616 1.701666 4.3331988e-39
-2.8268073 10.719638 1.7042365 1.1616275e-38
-2.7590408 10.622514 1.6974119 4.7941784e-39
-2.8278658 10.861312 1.7015382 1.2262008e-38
-2.7540674 10.899831 1.7005938 5.7161333e-39
-2.8696339 11.121512 1.6704309 1.2538956e-38
-2.7590566 11.029765 1.6995925 6.1774701e-39
-2.825587 11.327353 1.7114252 1.5674693e-38
-2.7791502 11.302691 1.7008808 7.6522415e-39
-2.8034856 11.561359 1.6884632 8.9440593e-39
-2.7860761 11.479877 1.7008882 8.3901667e-39
-2.8028378 11.774831 1.7009273 9.3114055e-39
-2.7911263 11.685334 1.6969376 9.127373e-39
-2.8084562 11.90972 1.7013366 9.3117642e-39
-2.7982237 11.827635 1.6798284 9.2195686e-39
-2.8157585 12.101852 1.6989999 8.9433418e-39
-2.7936614 12.071373 1.6953092 9.1280918e-39
-2.8208802 12.224196 1.6996732 8.5745565e-39
-2.7934582 12.271261 1.69382 8.1150161e-39
-2.8453174 12.507144 1.6993378 7.7440798e-39
-2.7995565 12.478732 1.6864153 6.9164673e-39
-2.8548656 12.703479 1.7002082 6.7302866e-39
-3.0061278 12.957451 1.65661 1.3554197e-38
-2.8613844 12.862798 1.6994632 5.8086904e-39
-3.0029376 13.06276 1.6919861 1.3737868e-38
-2.8628206 13.10675 1.7004884 5.2547964e-39
-3.0052369 13.319695 1.7151144 1.5028607e-38
-2.8737445 13.304853 1.6998105 4.7019827e-39
-3.0023837 13.537075 1.7102506 1.5673973e-38
-2.8802404 13.447753 1.6993088 4.6097871e-39
-3.0020132 13.769221 1.7358691 1.6227148e-38
-2.8975828 13.707442 1.7020581 5.0711254e-39
-3.0042939 13.97043 1.6418523 1.6965429e-38
-2.9094748 13.906791 1.7001302 5.5321035e-39
-3.0014327 14.179491 1.7462256 1.3922259e-38
-2.913774 14.02355 1.6953712 5.9930817e-39
-3.0022285 14.348145 1.6568067 1.4935338e-38
-2.9498308 14.30637 1.6999651 7.4678502e-39
-3.0031066 14.538266 1.6880921 1.6410468e-38
-2.9560626 14.473168 1.698634 8.1135784e-39
-3.0025101 14.765901 1.6940783 1.3552406e-38
-2.9945021 14.692324 1.6992191 1.345985e-38
-3.0052376 14.899198 1.6959583 1.3736796e-38
-2.9977446 14.851474 1.7133709 1.3828991e-38
-3.0320799 15.105279 1.7008249 1.723987e-38
-2.991282 15.087787 1.6978496 2.1112799e-38
-3.0387375 15.204607 1.6639706 1.6594859e-38
-2.9917932 15.312789 1.7035034 1.9084144e-38
-3.0847306 15.50476 1.699488 1.5581783e-38
-2.9956734 15.467842 1.7046577 1.7517534e-38
-3.0962276 15.706882 1.6991752 1.3921187e-38
-2.9991448 15.641068 1.7599151 1.6042763e-38
-3.0940526 15.870129 1.7002311 1.3275097e-38
-2.4009986 2.1948719 1.9026008 3.3183308e-39
-2.3876593 2.1903551 1.8941157 3.5034325e-39
-2.4019465 2.220458 1.9633653 3.4105236e-39
-2.3836737 2.2845452 1.9001715 5.4388247e-39
-2.3812494 2.4114649 1.8855245 1.3549868e-38
-2.5513015 4.3809509 1.8969408 9.4921996e-39
-2.5493553 4.4948258 1.8994441 9.7687865e-39
-2.5570259 4.7054234 1.8997809 1.1427952e-38
-2.5596859 4.8848543 1.8995883 1.2995636e-38
-2.5634708 5.1072712 1.8995376 1.5393088e-38
-2.5630808 5.2569404 1.899101 1.7237358e-38
-2.6015809 5.5186176 1.8620023 1.631755e-38
-2.5737493 5.5043488 1.8998324 1.7699767e-38
-2.6009574 5.7658162 1.9039503 1.8438051e-38
-2.5746338 5.6494293 1.8985405 1.8991225e-38
-2.6014445 5.9257283 1.8964802 1.8806835e-38
-2.5929127 5.9039898 1.8987038 1.8807194e-38
-2.6022019 6.0524259 1.927449 1.8714998e-38
-2.5924971 6.0362134 1.8981373 1.8438411e-38
-2.6103277 6.3041234 1.8982614 1.4472923e-38
-2.5988955 6.345902 1.9349902 1.4011945e-38
-2.6099842 6.4292879 1.9005346 1.3182183e-38
-2.5960207 6.4530921 1.9295288 1.2813403e-38
-2.6222119 6.7077789 1.9010059 1.0417034e-38
-2.5942657 6.6742854 1.8998979 1.0785458e-38
-2.6215489 6.8323107 1.8984667 9.403241e-39
-2.5949702 6.8626685 1.9070673 9.7691298e-39
-2.6325102 7.1856627 1.8590487 7.9284668e-39
-2.597024 7.1210904 1.9507974 7.1934213e-39
-2.6353283 7.3406234 1.8967636 7.2827401e-39
-2.6336865 7.5049253 1.9003783 6.7295649e-39
-3.040966 7.7289877 1.8496505 1.0411241e-38
-2.6360574 7.6500306 1.89877 6.6370092e-39
-2.6553206 7.9058347 1.8981311 7.1898242e-39
-2.6599431 8.0718155 1.9027604 8.38728e-39
-2.702759 8.2916298 1.8992412 7.0983376e-39
-2.6881971 8.5795002 1.8782449 5.6239278e-39
-2.6855931 8.6065111 1.9599665 5.9005147e-39
-2.5944331 8.6508112 1.8994553 3.5030612e-39
-2.8107226 9.389019 1.8997951 1.0140784e-38
-2.7522063 9.3909063 1.8659704 1.7782535e-38
-2.8075721 9.4958305 1.9318799 1.4837373e-38
-2.7479403 9.543294 1.8962159 7.0921957e-39
-2.5333924 9.4789906 1.829841 3.872564e-39
-2.8174438 9.6964102 1.9819282 1.9264914e-38
-2.7474999 9.63731 1.9072508 4.9753004e-39
-2.5363452 9.6835785 1.8226718 5.1651063e-39
-2.8045008 9.9437113 1.889012 1.2440256e-38
-2.6830897 9.8697729 1.9022815 4.9792633e-39
-2.5887942 9.9227657 1.9430621 5.1651035e-39
-2.8071096 10.100434 1.9129173 1.336365e-38
-2.7527537 10.192895 1.9258685 5.1582553e-39
-2.5970936 10.059504 1.9513981 6.2710965e-39
-2.8145411 10.331218 1.8881317 8.664206e-39
-2.7618978 10.230368 1.8940105 4.3284904e-39
-2.8188732 10.529443 1.8651574 9.6801628e-39
-2.7543066 10.498915 1.8996432 4.1491677e-39
-2.8224688 10.701812 1.8650635 1.1432244e-38
-2.7559974 10.621313 1.90088 4.7019827e-39
-2.836133 10.860253 1.905176 1.1985422e-38
-2.7509015 10.909404 1.9000196 5.8079702e-39
-2.8133819 11.094863 1.8834561 1.5398111e-38
-2.7534449 11.026362 1.9000932 6.2696672e-39
-2.8112133 11.370334 1.9472408 1.8532764e-38
-2.7776749 11.301226 1.8997084 8.0213841e-39
-2.800782 11.544456 1.8455743 9.5890672e-39
-2.7838674 11.473095 1.8989571 9.1277317e-39
-2.8035119 11.772043 1.8827213 1.051031e-38
-2.7912745 11.683096 1.90722 1.0510309e-38
-2.8083875 11.90852 1.8988782 1.0141166e-38
-2.7981796 11.858248 1.9117341 8.9422614e-39
-2.8138924 12.106752 1.8997918 1.0233722e-38
-2.7910774 12.07211 1.9127115 1.0511747e-38
-2.8174303 12.223424 1.8981986 9.4965156e-39
-2.7981961 12.24858 1.8980232 9.5890714e-39
-2.844723 12.507067 1.8991339 8.2050579e-39
-2.7992415 12.481092 1.9406815 8.4823595e-39
-2.8542578 12.705231 1.8994067 6.8228438e-39
-2.8593731 12.857889 1.8977822 5.8086918e-39
-2.8620012 13.108164 1.9010147 5.1629623e-39
-3.0070274 13.336636 1.9134365 1.4474357e-38
-2.8711748 13.305079 1.9000505 4.6097885e-39
-3.0025501 13.530643 1.899181 1.5120085e-38
-2.8760684 13.44193 1.8965909 4.6097885e-39
-3.0027676 13.741622 1.8513588 1.5858364e-38
-2.8965156 13.707558 1.8980792 5.1629637e-39
-3.0027082 13.959562 1.936257 1.3369803e-38
-2.9069409 13.906573 1.9004176 5.9005273e-39
-3.0022039 14.148819 1.870348 1.410665e-38
-2.9123089 14.022498 1.8978331 6.3615041e-39
-3.0016065 14.362874 1.9046568 1.5949131e-38
-2.9487231 14.307746 1.8994641 7.9288284e-39
-3.0036876 14.552045 1.8895093 1.7884879e-38
-2.9536891 14.471416 1.8995192 8.758589e-39
-3.0017993 14.743821 1.8831336 1.5026817e-38
-2.9938619 14.704592 1.9014791 1.4934982e-38
-3.004704 14.906649 1.8931335 1.5211927e-38
-2.9968569 14.854766 1.910594 1.5303766e-38
-3.0296781 15.103236 1.9000461 1.8807195e-38
-2.9902833 15.082484 1.8997118 2.2495734e-38
-3.0394385 15.205596 1.8885846 1.8254021e-38
-2.9884531 15.29635 1.9030399 1.9729513e-38
-3.0883207 15.504477 1.8990113 1.6318273e-38
-2.9980843 15.566773 1.9266082 1.6317916e-38
-3.10254 15.706849 1.899662 1.4657317e-38
-2.9981406 15.641812 1.9237745 1.5488864e-38
-3.099165 15.871215 1.8995937 1.3735357e-38
-2.4009993 2.1922746 2.0811458 2.5811217e-39
-2.3901906 2.1917405 2.0997279 2.5811217e-39
-2.4015667 2.29287 2.1478877 4.6079892e-39
-2.3844695 2.2829802 2.0998657 4.8856523e-39
-2.3831494 2.4024029 2.1729045 1.6314679e-38
-2.5503397 4.3827457 2.1036634 1.2256995e-38
-2.5512753 4.4944015 2.0891335 1.0229765e-38
-2.5665054 4.6154423 2.1156523 9.9538938e-39
-2.5636246 4.8919315 2.0987473 1.1889289e-38
-2.5612917 5.1071253 2.1005247 1.4378578e-38
-2.5641494 5.262013 2.0996542 1.6591632e-38
-2.6012807 5.4856052 2.1138351 1.61328e-38
-2.5702875 5.5020742 2.0979061 1.8068191e-38
-2.6021993 5.7793188 2.0528738 1.8160747e-38
-2.5734291 5.6519737 2.1022439 2.0097212e-38
-2.601265 5.8891382 2.0967927 2.0190128e-38
-2.5891926 5.9077272 2.0983624 2.037452e-38
-2.6024485 6.0722671 2.1422181 2.0005738e-38
-2.5915484 6.0403972 2.0987449 1.9913543e-38
-2.6086638 6.3020663 2.1001456 1.4933184e-38
-2.5985978 6.2928109 2.1146736 1.4840988e-38
-2.6121421 6.4309955 2.0987282 1.3366217e-38
-2.5983217 6.4211202 2.059839 1.336622e-38
-2.6211302 6.7016435 2.0982203 1.0601067e-38
-2.5940266 6.6673007 2.1070893 1.060143e-38
-2.6246305 6.8353934 2.1028168 9.9560574e-39
-2.5954058 6.8707657 2.0614848 9.6772957e-39
-2.6244671 7.16961 2.1529098 8.7578758e-39
-2.5950723 7.0498915 2.0624671 7.7462364e-39
-2.6349013 7.3426118 2.0910761 9.1259338e-39
-2.6323047 7.5031061 2.090395 9.586549e-39
-2.9979777 7.6456332 2.1894708 1.3450823e-38
-2.6342928 7.6501899 2.0805938 9.4939877e-39
-2.9404805 7.9316721 2.1384399 1.1796688e-38
-2.6559901 7.9028106 2.0647645 9.4014361e-39
-2.8029563 8.1641531 2.1492081 1.6965448e-38
-2.6611741 8.0737457 2.0558608 9.9531609e-39
-2.8048656 8.2823315 2.1769018 1.8716442e-38
-2.7032382 8.2920313 2.1011031 9.4943464e-39
-2.8048003 8.451067 2.1908782 9.771292e-39
-2.6888561 8.5782833 2.1462603 5.9919901e-39
-2.2555716 8.5277958 2.0874794 2.4899869e-39
-2.6853695 8.6097593 2.0767303 5.7161305e-39
-2.5881569 8.6547384 2.1710227 1.1981803e-39
-2.7347298 8.9024916 2.1946895 1.0969481e-38
-2.7516508 9.1256285 2.1958191 1.4840261e-38
-2.8055549 9.3921909 2.1326995 2.2495727e-38
-2.6823914 9.3894243 2.1855061 9.9506148e-39
-2.8110094 9.5337639 2.1039138 1.8527352e-38
-2.7465308 9.544261 2.1016922 6.9999987e-39
-2.5849714 9.4755821 2.139488 6.1782002e-39
