# .PCD v0.7 - Point Cloud Data file format
VERSION 0.7
FIELDS x y z rgb
SIZE 4 4 4 4
TYPE F F F F
COUNT 1 1 1 1
WIDTH 1082
HEIGHT 1
VIEWPOINT 0 0 0 1 0 0 0
POINTS 1082
DATA ascii
9.9066849 4.8243518 0.5030036 8.4798371e-39
10.12721 4.8235016 0.51212478 8.2958046e-39
10.28064 4.8273954 0.50272268 8.1114148e-39
10.502706 4.8534966 0.49716428 8.018859e-39
10.709075 4.8632894 0.51754475 7.926662e-39
10.907439 4.8726735 0.49300081 7.9270207e-39
11.123005 4.8908024 0.49427781 7.9270221e-39
11.32605 4.8805289 0.50224942 8.0188604e-39
11.524776 4.8749318 0.52869827 8.111412e-39
11.693204 4.8809686 0.49416637 8.111056e-39
11.873399 4.8898258 0.47766626 8.111056e-39
12.087731 4.9075532 0.47725976 8.1106959e-39
12.229911 4.939754 0.51788998 8.2950872e-39
10.796274 5.0002127 0.42404506 8.2961648e-39
10.907167 5.0101204 0.50902748 8.0195779e-39
11.024998 5.0154586 0.57017946 7.8351838e-39
11.297698 5.0046768 0.50463825 7.9273822e-39
11.437954 5.007741 0.48387963 8.0195779e-39
11.722818 5.0389953 0.46143839 8.0188618e-39
11.867311 5.0566936 0.44816124 8.1110574e-39
-2.6122277 4.3822122 0.60937947 1.5579597e-38
-2.4835479 4.3722119 0.70132387 1.6870721e-38
-2.2929306 4.3790917 0.70181793 1.834621e-38
-2.1024585 4.382956 0.72272265 1.8254377e-38
-1.9750557 4.3887467 0.70954067 1.7977792e-38
-1.7186896 4.3923931 0.69091386 1.7147308e-38
-1.5174149 4.3954191 0.67676818 1.677781e-38
-1.3053452 4.398243 0.64894646 1.6870714e-38
-1.0318867 4.3936472 0.79079378 1.2168371e-38
-0.89148688 4.3953891 0.77229083 1.2352411e-38
-0.77746475 4.3974419 0.75473529 1.2259136e-38
-0.44110605 4.3962226 0.70817864 1.198363e-38
-0.37321654 4.3984241 0.65637076 1.1891074e-38
-0.10299503 4.3912063 0.68925881 7.3760021e-39
0.012835809 4.3962603 0.71356845 7.4681991e-39
0.23998077 4.3927279 0.69161946 7.5603948e-39
0.50604111 4.3789096 0.69500148 7.7451518e-39
0.71919322 4.3858514 0.6967091 8.0213771e-39
0.89819181 4.3923163 0.70275468 8.2061299e-39
1.0946811 4.3953538 0.69437861 8.3901653e-39
1.2722656 4.3979259 0.77189362 8.7593037e-39
-2.0426705 4.4019117 0.70917702 1.7239502e-38
-1.9688381 4.4043555 0.70859623 1.7885238e-38
-1.6690116 4.4059701 0.7285881 1.7147668e-38
-1.4650382 4.4084206 0.73105597 1.677781e-38
-1.3954439 4.4183974 0.77628475 1.668633e-38
-1.0570743 4.4163184 0.78498304 1.2720113e-38
-0.86739457 4.4040399 0.76573539 1.2443888e-38
-0.68239093 4.4096694 0.73788732 1.2443528e-38
-0.4507609 4.4136267 0.7846036 1.1983626e-38
-0.30173439 4.4197755 0.75967884 1.2259139e-38
-0.052894872 4.4641833 0.78033429 1.2259855e-38
0.11734038 4.4774165 0.75422215 1.2627922e-38
0.34041184 4.4934306 0.77929705 1.2996345e-38
0.50682849 4.4975114 0.75040281 1.3365128e-38
0.76290703 4.518558 0.78270036 1.3550237e-38
0.91324961 4.5209556 0.75549954 1.3918659e-38
1.1705042 4.5323043 0.7887938 1.4379637e-38
1.3121119 4.5335646 0.76653761 1.437964e-38
1.4959117 4.5397654 0.73514968 1.4379639e-38
1.7421249 4.5475211 0.78002584 8.7564268e-39
1.9094971 4.5502286 0.7497201 8.6642298e-39
2.1675062 4.5682564 0.79024822 8.2954459e-39
2.3140547 4.572473 0.76643211 8.2032517e-39
2.5103533 4.5782909 0.73303354 8.0192177e-39
2.7586803 4.5836816 0.7829594 7.5585969e-39
2.9148204 4.5911179 0.75663596 7.5582396e-39
3.0544527 4.5942721 0.74368834 7.5578808e-39
3.3326821 4.5897765 0.78253204 1.0230107e-38
3.4238758 4.5977111 0.76533848 1.0137551e-38
3.6726427 4.5898337 0.76185054 1.2721562e-38
3.8795984 4.5692959 0.67687696 1.2813756e-38
4.0731111 4.585454 0.70239913 1.290559e-38
2.3739865 4.6009889 0.68966347 1.3828267e-38
2.5463412 4.6033931 0.68069094 1.3459482e-38
2.7078683 4.603229 0.7646113 8.4805574e-39
2.9247556 4.6018286 0.73985893 7.5585983e-39
3.1332357 4.6058817 0.70622844 7.5578822e-39
3.3650143 4.6023569 0.74848336 9.5861749e-39
3.5140965 4.6097217 0.75146371 1.0137554e-38
3.7047782 4.6198387 0.71834886 1.1427935e-38
3.9798851 4.6138473 0.76732403 1.557782e-38
4.1040411 4.6263785 0.73447174 1.603844e-38
4.383215 4.6353908 0.78274459 1.0231191e-38
4.5186167 4.6497774 0.74446177 1.0138637e-38
4.7458162 4.6597176 0.77814865 1.0415224e-38
4.9085884 4.6771617 0.75101119 1.0415225e-38
5.1483302 4.6784601 0.78569514 1.0231909e-38
5.3113661 4.691318 0.75683087 1.0323029e-38
5.5827212 4.69698 0.78519249 9.6776601e-39
5.7198143 4.7091637 0.77308869 9.2166819e-39
5.901082 4.7191248 0.74351954 9.0330137e-39
6.1191249 4.7273698 0.77928436 9.8627814e-39
6.3054829 4.7385101 0.74351311 9.7702228e-39
6.5394478 4.7550249 0.7790581 9.4014403e-39
6.7078757 4.7594352 0.75075424 9.4010788e-39
6.9489341 4.7449493 0.78821051 8.848977e-39
7.1127672 4.7494779 0.761994 8.9404566e-39
7.3801775 4.7638626 0.78725564 8.7567814e-39
7.5770125 4.7423487 0.78011632 8.848977e-39
7.7145386 4.7531123 0.74826759 8.848977e-39
7.9073215 4.7700639 0.71648264 8.9408153e-39
8.0974483 4.775938 0.69920957 9.2166833e-39
8.2816505 4.7756877 0.70020062 9.3085202e-39
8.5044584 4.7876043 0.69894445 9.4929115e-39
8.6948614 4.7893572 0.70070308 9.4929129e-39
8.9047832 4.7926431 0.69403332 9.4007186e-39
9.0791245 4.7942419 0.70294064 9.308523e-39
9.305747 4.7965522 0.71715343 9.0326522e-39
9.4775991 4.7971072 0.72155404 8.7564254e-39
9.7396116 4.794488 0.69948465 8.572037e-39
9.8470764 4.7996163 0.65524125 8.5720356e-39
10.101961 4.7974195 0.78511679 8.2032531e-39
5.2803655 4.8001256 0.67458433 1.5027169e-38
5.4124546 4.815362 0.66426742 1.5119364e-38
6.3970432 4.8058982 0.76104093 8.941181e-39
6.5129704 4.8098931 0.73698813 8.7567884e-39
6.6304293 4.8324633 0.73636186 8.7567884e-39
7.1586494 4.8043451 0.67220235 8.5716782e-39
7.3017411 4.8037534 0.70541954 8.4794798e-39
7.5334682 4.8036256 0.67705727 9.1255667e-39
7.7418637 4.8034129 0.7347219 9.0326508e-39
7.9007568 4.8090267 0.69511986 9.0326522e-39
8.0848408 4.8116255 0.69576341 9.216326e-39
8.2974501 4.8240299 0.69286007 9.3088803e-39
8.4931688 4.8053923 0.65459824 9.3085202e-39
8.7230139 4.8029847 0.69533706 9.4929143e-39
8.8946028 4.804028 0.70161718 9.4929129e-39
9.1264105 4.8048091 0.70543486 9.3085216e-39
9.2945499 4.8083563 0.69014823 9.1244877e-39
9.483964 4.8078833 0.69480526 8.7564254e-39
9.6987209 4.8133121 0.70654607 8.6638697e-39
9.9215431 4.8220701 0.70919943 8.5720328e-39
10.109849 4.8239727 0.693178 8.3876429e-39
10.274962 4.8239398 0.6917513 8.111056e-39
10.49923 4.8541183 0.7076245 7.926662e-39
10.683095 4.862577 0.69703746 7.8344649e-39
10.917815 4.8697515 0.70603204 7.9263018e-39
11.098752 4.8692746 0.69969565 7.9263032e-39
11.300667 4.8710613 0.67729551 8.0184961e-39
11.500724 4.8723793 0.6732707 8.1106917e-39
11.708027 4.8927932 0.71032387 8.2950815e-39
11.88117 4.8993473 0.70965374 8.4791141e-39
12.068134 4.9159617 0.69454503 8.570951e-39
10.57753 5.0127454 0.7491641 8.5723845e-39
10.710411 5.0039759 0.75205159 8.8493287e-39
10.9037 5.0156269 0.68712634 8.0206555e-39
11.042683 5.0171585 0.70927441 7.9273822e-39
11.270332 5.0202866 0.7370981 7.8348237e-39
11.483479 5.0050764 0.75384074 7.9266634e-39
11.711173 5.0166249 0.70271558 8.1110546e-39
12.210282 5.0118203 0.66443467 8.2950773e-39
-2.6189258 4.3788929 0.96500349 1.9360724e-38
-2.4838181 4.3754048 0.89804471 1.8991579e-38
-2.2891078 4.385726 0.89914119 1.9175609e-38
-2.0921345 4.3914909 0.90058833 1.8991582e-38
-1.9580295 4.3938589 0.8926878 1.8806832e-38
-1.7303194 4.3969569 0.9026674 1.7792313e-38
-1.4242688 4.3836837 0.95617121 1.3090328e-38
-1.2523372 4.3738399 0.93806469 1.2813741e-38
-1.1012576 4.3873291 0.90944123 1.2720831e-38
-0.90739202 4.3934021 0.90350902 1.2628276e-38
-0.70270312 4.3927722 0.92090029 1.2075821e-38
-0.56459588 4.398078 0.88141513 1.189179e-38
-0.36198434 4.3986249 0.96272361 1.2074748e-38
-0.088927068 4.3871069 0.90879238 7.0994138e-39
0.10312219 4.3950839 0.89759505 7.2838093e-39
0.27353334 4.3924732 0.9712851 7.2838093e-39
0.51181269 4.3752551 0.89477319 7.5611164e-39
0.70413941 4.379838 0.89375752 7.929543e-39
0.8976953 4.3872137 0.89892697 8.2061313e-39
1.06724 4.3940344 0.91969198 8.574911e-39
1.2712542 4.3964825 0.87451351 8.8514979e-39
-2.252394 4.4012961 0.94151825 1.8438403e-38
-2.0713716 4.4013791 0.9010101 1.8806831e-38
-1.9418409 4.4032979 0.93686354 1.8899029e-38
-1.6769668 4.4075441 0.89973688 1.7699762e-38
-1.4906018 4.4101334 0.89993531 1.7330983e-38
-1.2430967 4.4049373 0.93466729 1.2905582e-38
-1.0331577 4.4024758 0.90891129 1.2628994e-38
-0.89822876 4.4029455 0.87733471 1.2628276e-38
-0.63661301 4.4052558 0.94690025 1.2075821e-38
-0.42180482 4.4348764 0.95673418 1.1799592e-38
-0.2960161 4.4476357 0.9242959 1.189179e-38
-0.082951725 4.460474 0.95180565 1.1984344e-38
0.18504612 4.4695077 0.97824913 1.2260929e-38
0.31192073 4.4897604 0.96056044 1.253716e-38
0.57720679 4.4910417 0.99042672 1.3275079e-38
0.72015482 4.5072818 0.96789604 1.3643146e-38
0.90815395 4.5177488 0.93668807 1.4195605e-38
1.1560674 4.5123248 0.98297542 8.8493343e-39
1.3087754 4.5244803 0.95575124 8.9411726e-39
1.5023425 4.5343084 0.9232524 9.1248464e-39
1.7406065 4.5366802 0.96681869 8.7571387e-39
1.9069052 4.5514417 0.93909156 8.6645843e-39
2.0997715 4.5606756 0.90634501 8.5720328e-39
2.2923136 4.567347 0.89786887 8.3876415e-39
2.5215423 4.5662866 0.92484659 7.7429882e-39
2.6999292 4.5815473 0.90260452 7.6507939e-39
2.8962631 4.5877671 0.90045971 7.4664041e-39
3.1775703 4.5830307 0.91953063 1.0875836e-38
3.2728832 4.5902653 0.8911711 1.0506338e-38
3.4481933 4.5972767 0.87897015 1.0137914e-38
3.7243207 4.595921 0.96932995 1.2349528e-38
3.879179 4.5701132 0.87437874 1.2629358e-38
4.0138955 4.5829525 0.83288747 1.318217e-38
4.2925544 4.5912385 0.95051157 1.8342973e-38
4.5061774 4.5955362 0.94683605 1.9265292e-38
4.6854916 4.5981307 0.96484518 1.9818826e-38
4.8630986 4.5962586 0.94995725 1.9635154e-38
5.1207852 4.5973616 0.95526809 2.009577e-38
5.2329173 4.5987511 0.98293507 2.0279446e-38
5.427156 4.5995722 0.9444176 1.9911022e-38
5.7018738 4.5968308 0.93120354 1.7605765e-38
2.3267155 4.6012712 0.86185974 1.410485e-38
2.5508974 4.6024537 0.88725555 1.3551674e-38
2.7660291 4.6011667 0.91156805 8.019938e-39
2.9568028 4.6009374 0.85954839 7.46676e-39
3.1549332 4.6031933 0.89169794 7.4660454e-39
3.3483007 4.6047716 0.92173737 1.0229749e-38
3.4989021 4.6101317 0.90252441 9.9531638e-39
3.6962616 4.6138048 0.90188891 1.1242825e-38
3.9213903 4.6196733 0.91511548 1.5486345e-38
4.0921154 4.6356697 0.90134299 1.6130995e-38
4.3448658 4.6397462 0.91768277 9.9549644e-39
4.5671325 4.6461186 0.9350931 1.0507778e-38
4.6986046 4.6609135 0.90139347 1.0691811e-38
4.9653459 4.6606584 0.93505716 1.0508493e-38
5.1009951 4.6756172 0.90517771 1.0599974e-38
5.3810058 4.6824207 0.95148581 1.0507775e-38
5.5012274 4.6927686 0.91218156 1.0230831e-38
5.7557397 4.6979322 0.94255936 9.8638506e-39
5.9007177 4.7125983 0.91594607 9.8634933e-39
6.1300273 4.7228899 0.94731939 9.4950709e-39
6.3026466 4.73913 0.92200965 9.4021564e-39
6.488616 4.7461205 0.89936322 9.4014375e-39
6.7171402 4.727953 0.93025535 8.8496973e-39
6.8972554 4.7398353 0.90542591 8.7567842e-39
7.0979986 4.7420878 0.89971054 8.8482623e-39
7.3556657 4.7678671 0.91692162 8.5727502e-39
7.5287123 4.7434125 0.92868131 8.6649459e-39
7.6991858 4.7591667 0.90452117 8.8493385e-39
7.894773 4.7628193 0.90064478 9.2170435e-39
8.0968246 4.7627006 0.8950929 9.493273e-39
8.2842102 4.7664728 0.89904785 9.6773041e-39
8.4992561 4.7804227 0.90073156 9.7698585e-39
8.7048693 4.7856951 0.90619731 9.7694984e-39
8.8948278 4.7865953 0.89448488 9.6773027e-39
9.104825 4.7891388 0.91276371 9.4929157e-39
9.2861757 4.7872233 0.89890522 9.3085188e-39
9.4942427 4.7905359 0.91781962 9.0319319e-39
9.6821566 4.7929349 0.93702209 8.01778e-39
9.9169664 4.7943916 0.88640487 8.2025328e-39
10.046043 4.7929592 0.85306692 8.294727e-39
10.210087 4.7955379 0.97057229 7.741912e-39
10.522763 4.7911944 0.89055687 8.0184905e-39
10.696091 4.7941132 0.90020955 7.9262962e-39
5.5551429 4.8123908 0.96525067 1.5304116e-38
5.6918383 4.816124 0.96381837 1.548886e-38
5.948267 4.8111639 0.96769607 1.2721915e-38
6.1509595 4.802577 0.90181857 9.6790992e-39
6.2912078 4.8093767 0.94843704 9.6794551e-39
6.4969864 4.8085423 0.95991784 8.9415328e-39
6.6539512 4.8059883 0.8710404 7.5585969e-39
6.8757915 4.8162746 0.87358451 8.2039663e-39
7.0234623 4.8490467 0.85086352 8.2039663e-39
7.3711605 4.8020053 0.85442948 8.2036076e-39
7.5371938 4.8014898 0.87062263 8.7567842e-39
7.7118459 4.8049288 0.84526616 8.8489812e-39
7.8817959 4.8045816 0.88374984 9.2170449e-39
8.1033316 4.8067217 0.89297277 9.4932702e-39
8.2919016 4.8190522 0.90553868 9.585826e-39
8.4957352 4.8275495 0.89191943 9.7698557e-39
8.7658176 4.8050351 0.84963286 9.7694984e-39
8.8884048 4.8073502 0.84852093 9.5851071e-39
9.1062822 4.8034286 0.86434138 9.4929143e-39
9.2552938 4.8117867 0.83460844 9.3085216e-39
9.4724121 4.8053908 0.88746828 9.1241276e-39
9.6988029 4.8107734 0.84807348 8.6631494e-39
9.8923197 4.8117304 0.89332366 8.0181415e-39
10.079726 4.8188491 0.92666918 7.6489961e-39
10.286548 4.8315792 0.91244447 7.9255802e-39
10.508371 4.8348751 0.90290076 8.0181345e-39
10.7141 4.8336854 0.91333693 7.9262976e-39
10.897933 4.8328428 0.89023888 7.9259375e-39
11.06203 4.8366513 0.89244354 7.7415462e-39
11.272213 4.8515368 0.91781569 7.1883739e-39
11.483996 4.8629313 0.88801062 7.9259403e-39
11.771872 4.867332 0.9058097 8.2025272e-39
11.916962 4.8818312 0.87237245 8.6635039e-39
12.106705 4.9029136 0.84436613 8.7556996e-39
12.329048 4.9416614 0.82975066 8.9400908e-39
10.526971 5.0080833 0.89510846 8.9404468e-39
10.759895 5.003448 0.85472345 8.4794714e-39
10.943457 5.0074234 0.89676082 8.1106903e-39
11.08784 5.008697 0.88411999 8.0188548e-39
11.292026 5.0181174 0.91221291 8.111049e-39
-2.6234138 4.3831925 1.0223083 1.9360725e-38
-2.5249159 4.3766298 1.1466516 2.0651467e-38
-2.2943623 4.3848872 1.0964578 2.0097924e-38
-2.0975616 4.3945622 1.0957214 2.0005731e-38
-1.9422352 4.395268 1.103869 1.9821342e-38
-1.7173721 4.3965106 1.0964116 1.8438044e-38
-1.4163487 4.3920817 1.0852052 1.3366559e-38
-1.2504873 4.3811979 1.1004046 1.3182167e-38
-1.1036683 4.3880525 1.0995703 1.2905223e-38
-0.90444386 4.3887553 1.0986817 1.2628279e-38
-0.73570555 4.3959379 1.079877 1.2167657e-38
-0.52405667 4.3983641 1.1360959 1.1983628e-38
-0.32580793 4.398766 1.1391608 1.2166585e-38
-0.15652522 4.3977909 1.1796107 9.5876196e-39
0.11057465 4.3918815 1.113623 7.099774e-39
0.23787743 4.3954248 1.1001347 7.3760007e-39
0.5028553 4.3753405 1.1085048 7.6529533e-39
0.70572352 4.3777709 1.1063597 8.0217373e-39
0.88798583 4.3886466 1.0948559 8.3908799e-39
1.0988641 4.3918214 1.1015192 8.8514979e-39
1.2905639 4.3968015 1.1439995 9.1288037e-39
-2.2344899 4.4024549 1.1349615 1.9913177e-38
-2.0953505 4.4022145 1.125141 2.0097927e-38
-1.928084 4.4025502 1.0993973 1.9729147e-38
-1.6727959 4.4075842 1.1066492 1.8437685e-38
-1.4248856 4.4032836 1.1610872 1.45651e-38
-1.2824157 4.4049692 1.1065099 1.3274006e-38
-1.0669277 4.4030952 1.0881292 1.2813386e-38
-0.89356571 4.4021044 1.1181173 1.2720475e-38
-0.66814297 4.4061761 1.1058862 1.2075464e-38
-0.4136118 4.4456282 1.0917102 1.1799594e-38
-0.30091125 4.4537902 1.1005503 1.1891433e-38
-0.077946812 4.4682088 1.0990701 1.2075824e-38
0.19087258 4.474153 1.0248761 1.2352763e-38
0.30222648 4.4928393 1.1001164 1.2813745e-38
0.57441765 4.4986949 1.0927024 1.355167e-38
0.6975922 4.5058289 1.1006727 1.4104126e-38
0.89350307 4.510778 1.100291 1.474878e-38
1.1499085 4.5162063 1.0974233 9.2181168e-39
1.295911 4.522522 1.0998677 9.4021508e-39
1.4956188 4.5280004 1.0999447 9.5858246e-39
1.7455183 4.5445542 1.0962044 9.1259226e-39
1.8969631 4.5507393 1.101669 9.0330109e-39
2.0935595 4.5553789 1.0997865 8.756424e-39
2.2962925 4.5685558 1.0947256 8.4798385e-39
2.5278838 4.5742669 1.0973459 7.7433497e-39
2.6931856 4.5813613 1.0987942 7.5585997e-39
2.8913658 4.5835142 1.1014363 7.4660454e-39
3.1850419 4.5907845 1.0791595 1.0782926e-38
3.2676146 4.5968814 1.1052135 1.0321945e-38
3.5138464 4.5979781 1.1246394 9.3074384e-39
3.7035646 4.5973363 1.1113086 1.0227954e-38
3.8515594 4.5953984 1.1052219 1.4285281e-38
4.1090736 4.5849319 1.1586863 1.4104129e-38
4.2681885 4.5917377 1.17046 1.3183252e-38
4.5017753 4.5941396 1.1452261 1.9265288e-38
4.6836572 4.5970054 1.1448387 1.9726628e-38
4.9089684 4.5985823 1.1615288 2.0003935e-38
5.095448 4.5990815 1.1696386 2.0464913e-38
5.287806 4.5983329 1.178014 2.0832974e-38
5.4343004 4.5951495 1.1386577 2.0556747e-38
5.717154 4.5974331 1.0941101 1.8158939e-38
5.8051624 4.5966573 1.1334686 1.7606128e-38
2.3659232 4.6026158 1.072909 1.4288881e-38
2.5299015 4.6041136 1.094965 1.3644232e-38
2.6740859 4.6026039 1.1298141 9.3099593e-39
2.9538615 4.6019087 1.0812101 7.6507967e-39
3.1897211 4.6023788 1.138883 1.0136836e-38
3.3085656 4.6049557 1.1026649 1.0229392e-38
3.4940553 4.608768 1.097603 9.492187e-39
3.6961267 4.6111951 1.0968355 9.8602493e-39
3.9355137 4.6287079 1.0972737 1.5761857e-38
4.100996 4.6362095 1.1004226 1.6407587e-38
4.3498168 4.6489811 1.0996639 1.0322671e-38
4.5735588 4.6570458 1.1002678 1.0875843e-38
4.6987996 4.6683087 1.0985428 1.096804e-38
4.9676971 4.6720552 1.0932156 1.0968753e-38
5.0941968 4.6801739 1.1007677 1.0968397e-38
5.383616 4.6884713 1.0855831 1.0692169e-38
5.498632 4.6979241 1.1022333 1.0507062e-38
5.7625971 4.7058945 1.0973049 1.0140077e-38
5.8959332 4.7136593 1.1004463 9.8634933e-39
6.1315155 4.7287955 1.0986823 9.4025165e-39
6.2973084 4.7353725 1.1007265 9.2177665e-39
6.4906669 4.738132 1.1001177 9.1252122e-39
6.7151861 4.7321754 1.0990636 8.6649487e-39
6.8983345 4.7351146 1.0991094 8.3880059e-39
7.0978141 4.7351937 1.1004957 8.4798413e-39
7.3572025 4.7752576 1.1022233 8.5720314e-39
7.5395164 4.7502141 1.1017344 8.756424e-39
7.7017088 4.7538857 1.1015416 9.1248464e-39
7.8991232 4.7530375 1.0992827 9.5851085e-39
8.0943985 4.7520328 1.0983748 9.8616968e-39
8.2925425 4.7579327 1.103254 1.0138281e-38
8.4996519 4.7740622 1.0943156 1.0138281e-38
8.6993361 4.7777281 1.0975794 1.0230116e-38
8.9105206 4.7800231 1.0989554 1.0045725e-38
9.0982742 4.7835011 1.1000327 9.7698543e-39
9.2947845 4.7897606 1.1045446 9.4936261e-39
9.4977665 4.7782402 1.1012144 8.7567828e-39
9.6799917 4.7678785 1.0961398 7.189813e-39
9.8697014 4.7788353 1.1320093 4.9753172e-39
10.198053 4.7962599 1.0641224 7.1887298e-39
10.215997 4.7974024 1.0236235 7.096537e-39
10.55087 4.7939205 1.0741493 7.8341048e-39
10.68705 4.7897248 1.058596 7.6497135e-39
10.88821 4.7853403 1.1261375 5.8990686e-39
11.004347 4.7892413 1.1704018 5.3462535e-39
5.1962242 4.8052406 1.1351061 1.4290323e-38
5.2857943 4.8018436 1.1379685 1.4751657e-38
5.5544729 4.807972 1.1722608 1.5949489e-38
5.6817827 4.809083 1.1291162 1.5949841e-38
5.9361482 4.8143311 1.0786309 1.2998861e-38
6.0895033 4.83006 1.079506 1.5765449e-38
6.3356199 4.806993 1.0844153 9.2191972e-39
6.4854527 4.8130374 1.0934346 9.125924e-39
6.6658063 4.8149691 1.0658523 8.5727516e-39
6.8870592 4.8054924 1.0468134 8.1117707e-39
7.168489 4.8057289 1.0866154 1.0139353e-38
7.3748183 4.8047833 1.0547346 8.6635053e-39
7.5751863 4.8022456 1.0513587 8.7564226e-39
7.7273045 4.8021064 1.0869021 9.1248492e-39
7.9142928 4.8028278 1.0609738 9.4932702e-39
8.1145163 4.8048897 1.0876991 9.8616954e-39
8.3027315 4.8180323 1.0985012 1.0046087e-38
8.4925575 4.8225555 1.0959935 1.0138279e-38
8.6957397 4.831039 1.1024816 1.0138281e-38
8.8954163 4.8108821 1.1548842 1.0230475e-38
9.1448984 4.8085289 1.0338613 9.6772999e-39
9.2845783 4.8067727 1.0988961 9.4939863e-39
9.4479361 4.8047442 1.0723306 9.400713e-39
9.752862 4.8230896 1.1469066 7.2827275e-39
9.8416691 4.8106556 1.1209558 7.0057777e-39
10.128982 4.8212066 1.0674115 6.0816606e-39
10.254354 4.8198881 1.0703143 6.5429988e-39
10.506185 4.8247571 1.0933985 7.5575137e-39
10.700234 4.8257389 1.1262759 7.7422679e-39
10.876165 4.8177085 1.1190778 7.0054203e-39
11.061244 4.8243852 1.0937021 5.9916229e-39
11.275895 4.8442903 1.0580084 6.0830955e-39
11.48263 4.8552799 1.05478 6.4511591e-39
11.691702 4.8449941 1.0506334 7.6493506e-39
10.502385 5.0053263 1.1918037 7.2802051e-39
10.732959 5.0050783 1.0831828 4.8838404e-39
10.892977 5.010766 1.0746014 7.0968985e-39
11.120985 5.0030956 1.0230185 8.0192149e-39
11.303219 5.0194335 1.0848789 7.8355425e-39
11.569188 5.0153008 1.0896915 5.5306504e-39
-2.6392717 4.398819 1.3427725 2.1297909e-38
-2.510236 4.3787708 1.3163167 2.2126592e-38
-2.2957566 4.3813992 1.2949373 2.1020241e-38
-2.1055222 4.3943915 1.3107812 2.1296472e-38
-1.9254251 4.3959613 1.2921196 2.0835854e-38
-1.7193018 4.393671 1.3044677 1.954439e-38
-1.414952 4.3948374 1.3050393 1.3918659e-38
-1.2427615 4.3826919 1.2995009 1.3457678e-38
-1.1054076 4.3842483 1.3003063 1.2996703e-38
-0.90612972 4.3864427 1.2999443 1.2444251e-38
-0.68669772 4.3980837 1.3024875 1.1891075e-38
-0.52378333 4.3976612 1.3298848 1.1706684e-38
-0.34854454 4.3973994 1.3659562 1.1798885e-38
-0.14255701 4.397718 1.3071011 1.17996e-38
0.058012359 4.3965578 1.3419952 9.6801796e-39
0.27421239 4.3946347 1.3220482 7.2838079e-39
0.5049035 4.3708653 1.2970721 7.6533135e-39
0.6875546 4.3906007 1.2700036 8.0220946e-39
0.91481501 4.3865662 1.297267 8.5759914e-39
1.0989228 4.391777 1.3078774 9.1291652e-39
1.2686216 4.395782 1.322865 9.590142e-39
1.5144038 4.3992958 1.3386592 9.8670932e-39
-2.2240527 4.4017787 1.2401552 1.98217e-38
-2.0967247 4.4028749 1.2875341 2.1020245e-38
-1.9226418 4.4034519 1.3168261 2.0928051e-38
-1.6518468 4.4064131 1.29219 1.9175969e-38
-1.4084362 4.4022946 1.2931226 1.3919021e-38
-1.2905426 4.40382 1.2899964 1.3549875e-38
-1.0964377 4.4055905 1.2954712 1.2996704e-38
-0.85921967 4.4050918 1.2260194 1.2627923e-38
-0.68047303 4.4064522 1.3013999 1.1891074e-38
-0.40680429 4.451633 1.2985834 1.1523009e-38
-0.30365214 4.4549222 1.2988185 1.1706684e-38
-0.072565608 4.4694948 1.2993177 1.1891436e-38
0.093159981 4.4706602 1.2995777 1.2444251e-38
0.30518118 4.4926353 1.2999039 1.2997422e-38
0.57905191 4.50246 1.3018912 1.4103769e-38
0.69563425 4.5036387 1.2986255 1.4472912e-38
0.8943755 4.5083718 1.3001788 1.5301596e-38
1.1540939 4.5174088 1.2994382 9.7705746e-39
1.292946 4.518589 1.299476 9.8627716e-39
1.4937105 4.5251279 1.2990696 1.0046804e-38
1.7497275 4.5464602 1.2974869 9.5858246e-39
1.8939806 4.5489917 1.2999868 9.3095992e-39
2.0927122 4.5549979 1.2991263 8.8489826e-39
2.2972288 4.5667744 1.3009108 8.4801973e-39
2.5347285 4.5753131 1.2999011 7.7429924e-39
2.6940715 4.5774021 1.2986023 7.4664069e-39
2.8986375 4.581356 1.299492 7.2816555e-39
3.1909056 4.5967293 1.3351341 1.0782567e-38
3.2960885 4.5970054 1.3082552 1.050598e-38
3.4656157 4.5970988 1.3090799 1.0321588e-38
3.6601934 4.5976114 1.3104365 1.0598174e-38
3.8342075 4.5892444 1.2239013 1.3180015e-38
4.1208339 4.5864997 1.3002303 1.7605408e-38
4.2568779 4.5873613 1.225302 1.3551676e-38
4.5013447 4.5882192 1.2997673 1.9726268e-38
4.7004433 4.5921206 1.299687 2.0649302e-38
4.8977389 4.5935817 1.3029079 2.0926609e-38
5.0939722 4.5960946 1.3144007 2.1387585e-38
5.2966123 4.5970001 1.3311466 2.1110637e-38
5.4891486 4.5979428 1.3638268 2.0280159e-38
5.6062899 4.5983534 1.3804349 1.9081261e-38
5.8136792 4.5954885 1.3242029 1.7698685e-38
2.1931629 4.6017265 1.3169672 1.567254e-38
2.3721807 4.6018686 1.2938093 1.5303756e-38
2.5563362 4.6045451 1.2681061 1.3644589e-38
2.7110479 4.6049972 1.2988075 1.3092135e-38
2.942266 4.6032605 1.3126121 7.5596801e-39
3.1966033 4.6008954 1.3371425 1.0414859e-38
3.2972167 4.6036167 1.2909837 1.050598e-38
3.5055766 4.6058793 1.2947143 1.0045362e-38
3.7000384 4.6093464 1.3003055 1.069001e-38
3.9443619 4.6316051 1.2963731 1.5577827e-38
4.1038909 4.6341114 1.3026305 1.6407588e-38
4.3500004 4.6499338 1.3020166 1.0415227e-38
4.5817647 4.661809 1.2966574 1.115279e-38
4.6992249 4.6662045 1.3020234 1.1336824e-38
4.9776278 4.675992 1.3067824 1.1337181e-38
5.0966206 4.6788349 1.2999065 1.1336821e-38
5.3905463 4.6951976 1.3094611 1.09684e-38
5.4964848 4.6963644 1.3007596 1.0599619e-38
5.7663498 4.7085409 1.3013144 1.0139721e-38
5.8943834 4.7098699 1.2986714 9.8631345e-39
6.1367297 4.7294669 1.30171 9.309602e-39
6.2926211 4.7304192 1.3002385 8.9411796e-39
6.4928088 4.7352099 1.2986702 8.7564282e-39
6.7170191 4.7302642 1.2999001 8.2039719e-39
6.8929906 4.7288289 1.3012643 8.0195821e-39
7.0936003 4.7317319 1.2988002 8.2036146e-39
7.3570704 4.774456 1.3021033 8.4805574e-39
7.538239 4.7458572 1.3024235 8.8486211e-39
7.7000151 4.7451606 1.3034207 9.3092391e-39
7.9015646 4.7442021 1.2967076 9.8620541e-39
8.1012068 4.7454157 1.3024329 1.0414868e-38
8.2994137 4.7544241 1.2952907 1.0691456e-38
8.4980211 4.7622328 1.3029529 1.0783649e-38
8.6943378 4.7666988 1.2978219 1.0783649e-38
8.8981094 4.7731743 1.3005804 1.0599258e-38
9.0887957 4.7769132 1.2971374 1.0230834e-38
9.2908773 4.7778659 1.3045599 9.8620499e-39
9.4647436 4.7680349 1.2994627 9.033727e-39
9.6623735 4.7517433 1.2941632 7.1872921e-39
9.9070187 4.7574215 1.3284343 5.3401312e-39
10.132467 4.7829628 1.2960525 5.528128e-39
10.266239 4.7918801 1.2672999 6.4522465e-39
10.549436 4.7875342 1.3358079 7.7426266e-39
10.698202 4.7779417 1.3360605 7.1894529e-39
10.842079 4.779192 1.2939996 6.2674966e-39
5.3684707 4.8011823 1.22394 1.5212633e-38
5.4991646 4.8159666 1.3166963 1.576581e-38
5.7242832 4.8331141 1.3752396 1.6226785e-38
5.9216876 4.8548012 1.3794941 1.6318981e-38
6.089684 4.8087559 1.3749353 1.0694329e-38
6.3227324 4.8052554 1.3130504 9.4957855e-39
6.5291667 4.837307 1.2775174 9.3113943e-39
6.6140461 4.8286562 1.2352775 9.771292e-39
7.171102 4.803586 1.3435032 7.7429882e-39
7.3346667 4.8021913 1.2566124 7.7422679e-39
7.4981065 4.8038063 1.2312504 7.9273794e-39
7.7599659 4.8019223 1.2442712 9.4025109e-39
7.9562821 4.8016367 1.3049253 9.9542498e-39
8.1527977 4.8037305 1.2783815 1.0414868e-38
8.3043299 4.8093224 1.300903 1.0599259e-38
8.5038786 4.8179336 1.2981414 1.0691813e-38
8.6999979 4.8294811 1.3050095 1.0691455e-38
8.8838911 4.8353896 1.2954082 1.0507422e-38
9.0956755 4.8413606 1.2954237 1.0138997e-38
9.3487453 4.8095388 1.3319119 9.7709319e-39
9.432107 4.8053451 1.3043633 9.5861805e-39
9.7068262 4.841248 1.2825147 7.2816457e-39
9.8413458 4.8313251 1.3816243 5.9887475e-39
10.165567 4.8120179 1.2363698 5.0660723e-39
10.330848 4.8169298 1.2860959 6.3593278e-39
10.514153 4.829865 1.2938797 7.0968971e-39
10.674669 4.8244991 1.3040181 7.650431e-39
10.823317 4.8136907 1.298769 7.3742028e-39
11.054429 4.9256606 1.2164398 6.7299138e-39
11.345656 4.9817514 1.284016 7.0986936e-39
10.500546 5.0042 1.2150371 7.8326587e-39
10.672636 5.0099053 1.3023446 4.4153051e-39
10.855459 5.0151315 1.2845174 4.6983702e-39
11.233135 5.0064483 1.2734944 7.6522261e-39
-2.6097293 4.3638754 1.4860579 1.9453278e-38
-2.4945967 4.3796263 1.505237 2.3048547e-38
-2.2948728 4.3809471 1.4996725 2.194256e-38
-2.1114666 4.3931303 1.5019729 2.2311341e-38
-1.9035853 4.397079 1.4909022 2.1850364e-38
-1.7264446 4.394146 1.5143189 2.0467068e-38
-1.4118786 4.3944535 1.4961628 1.4103771e-38
-1.244113 4.3802819 1.498234 1.3366923e-38
-1.1043789 4.3801022 1.4995145 1.2813393e-38
-0.90321338 4.3809867 1.5032403 1.226022e-38
-0.67912531 4.3978138 1.5082364 1.1523015e-38
-0.50906968 4.3967447 1.5180116 1.1430819e-38
-0.33433968 4.3975825 1.4977741 1.1523016e-38
-0.10076965 4.3987765 1.5789672 1.1891443e-38
0.12432549 4.3962088 1.5663707 1.2353853e-38
0.2531592 4.3972178 1.5539713 1.272264e-38
0.41101739 4.3944736 1.5671927 7.2841708e-39
0.70221353 4.3715262 1.5019664 8.0224589e-39
0.87647998 4.3806624 1.4982859 8.6681871e-39
1.0969951 4.386498 1.5044769 9.4979505e-39
1.292578 4.3932767 1.5033888 1.0143319e-38
1.5531209 4.397614 1.5440295 1.0604654e-38
1.6286036 4.3958821 1.5681204 1.069685e-38
-2.2095871 4.4037504 1.4352298 2.1850364e-38
-2.0623031 4.403039 1.4981452 2.2219145e-38
-1.9112626 4.4046745 1.5082573 2.194256e-38
-1.6707129 4.4047904 1.4862975 2.000609e-38
-1.4090286 4.4019341 1.4843049 1.4196324e-38
-1.3065367 4.4019737 1.4794552 1.3642792e-38
-1.0790917 4.4041991 1.4892688 1.2813035e-38
-0.8961283 4.4110904 1.4977368 1.2444252e-38
-0.68231595 4.4042025 1.4980305 1.161485e-38
-0.40739039 4.4505816 1.4950534 1.1338622e-38
-0.30703619 4.4513674 1.4999154 1.1338623e-38
-0.072604865 4.4669418 1.5010366 1.161557e-38
0.092810169 4.4676304 1.4989177 1.2260582e-38
0.30356181 4.4897757 1.498723 1.290595e-38
0.57820272 4.5006714 1.4989599 1.4288882e-38
0.69109732 4.4997311 1.5000019 1.4750222e-38
0.89167905 4.5056014 1.4994068 1.5763655e-38
1.1539286 4.5132957 1.4997822 1.0231916e-38
1.2953669 4.5139599 1.4980036 1.0324471e-38
1.4959453 4.5228615 1.5020078 1.0416308e-38
1.752028 4.544549 1.4991884 9.7712962e-39
1.8948379 4.5468416 1.4990834 9.494352e-39
2.091862 4.5535593 1.499896 9.0333753e-39
2.298069 4.5653615 1.4993812 8.4805602e-39
2.5363898 4.5740895 1.4990969 7.5593228e-39
2.6969442 4.5749435 1.4999119 7.2823772e-39
2.8987732 4.5777526 1.499777 7.1898214e-39
3.1918128 4.595583 1.5156221 1.1613048e-38
3.2926219 4.5964274 1.5080057 1.1428657e-38
3.4851348 4.5969715 1.4981327 1.1705244e-38
3.6659675 4.5975785 1.4918222 1.2995622e-38
3.8493385 4.5945306 1.5035799 1.3825033e-38
4.1230755 4.5780878 1.4992028 1.7328824e-38
4.3435364 4.5782876 1.4990488 1.8712117e-38
4.5007567 4.5815501 1.4992446 2.0003215e-38
4.7016759 4.5820031 1.4998863 2.1111357e-38
4.9004526 4.5862536 1.4996209 2.1757447e-38
5.1002102 4.5876837 1.4995893 2.2034032e-38
5.3003931 4.5906906 1.4996098 2.1572334e-38
5.4994011 4.591157 1.5005223 2.0372713e-38
5.609622 4.5927582 1.5149659 1.9265652e-38
5.8187242 4.5883145 1.5052905 1.7790883e-38
2.3508563 4.6075821 1.5247425 1.5949847e-38
2.5528038 4.6059031 1.4234487 1.4104847e-38
2.7353079 4.6059828 1.4780308 1.3092135e-38
2.9330516 4.6055303 1.5064734 1.0049321e-38
3.1846869 4.6018496 1.474867 7.1894613e-39
3.2937186 4.6028881 1.4878238 1.1152071e-38
3.4979112 4.60358 1.4979934 1.1705242e-38
3.7026448 4.6079669 1.502712 1.3179655e-38
3.9382315 4.628634 1.4971642 1.5393437e-38
4.0943089 4.6308846 1.5027108 1.622356e-38
4.353826 4.6510892 1.5022573 1.0415588e-38
4.5839915 4.6641593 1.4972422 1.1244989e-38
4.6973472 4.6656461 1.4998919 1.1429381e-38
4.9766374 4.6752968 1.4978675 1.1430097e-38
5.0958905 4.6767445 1.5003879 1.142974e-38
5.3900666 4.6936941 1.5015229 1.0877284e-38
5.4971504 4.6943064 1.4999967 1.0599979e-38
5.7692957 4.7069054 1.4986954 1.0047889e-38
5.8949509 4.7059546 1.4998215 9.5872693e-39
6.1360111 4.7250404 1.500078 8.8497071e-39
6.2952933 4.7257862 1.4987369 8.4809232e-39
6.4908538 4.7306213 1.5021663 8.2958116e-39
6.7147951 4.7254453 1.50065 7.8351922e-39
6.8965101 4.7253766 1.4981216 7.7433567e-39
7.099071 4.7273955 1.5025591 8.1117791e-39
7.3587437 4.7739005 1.4992476 8.3883646e-39
7.5335116 4.7420321 1.4972548 8.8493427e-39
7.6968913 4.7386727 1.5032237 9.4021564e-39
7.8955669 4.7379737 1.494272 1.004681e-38
8.092638 4.7390614 1.5067884 1.0784013e-38
8.2899437 4.7440519 1.4916546 1.1152796e-38
8.5085239 4.759274 1.4989034 1.124535e-38
8.7072897 4.7618599 1.5034542 1.1245349e-38
8.8882132 4.7633448 1.505663 1.1060597e-38
9.0999298 4.77247 1.5000101 1.0691813e-38
9.3225603 4.775712 1.5033438 1.0047161e-38
9.4946146 4.7517939 1.4985666 8.4812735e-39
9.6825275 4.73035 1.4927146 7.1890871e-39
9.8614531 4.7406693 1.430981 6.1738282e-39
10.138824 4.7825027 1.5105257 6.9121443e-39
10.268138 4.7911401 1.5165086 6.2685756e-39
10.463722 4.7928185 1.5787692 7.3745602e-39
10.741227 4.7866497 1.5241758 7.0976174e-39
10.910147 4.7723341 1.506689 6.0834626e-39
11.11797 4.7867441 1.4988292 7.1894501e-39
5.4997625 4.810328 1.509402 1.6042757e-38
5.7259231 4.8157687 1.4953538 1.6411178e-38
5.914907 4.8378663 1.4797729 1.6503014e-38
6.088109 4.827426 1.4611278 1.3275806e-38
6.2670355 4.8035831 1.5927777 1.0233351e-38
6.5156479 4.8083181 1.579958 9.2191972e-39
6.6891351 4.8165088 1.5758667 8.5738278e-39
7.3012924 4.8018522 1.4669108 8.1117679e-39
7.7311935 4.8014302 1.4203391 9.1262828e-39
7.9514356 4.8051963 1.4294579 9.9567651e-39
8.1714611 4.802248 1.4541364 1.0784013e-38
8.3074074 4.8099332 1.4974151 1.0969122e-38
8.5041857 4.813489 1.5024656 1.1153512e-38
8.6965914 4.8190598 1.4935832 1.1061318e-38
8.9074488 4.8260102 1.5036799 1.0876926e-38
9.1200237 4.836442 1.5004869 1.0508142e-38
9.3764229 4.8103871 1.4411815 9.955326e-39
9.5009356 4.8253212 1.4862934 8.6656633e-39
9.6704445 4.818481 1.4577475 6.9132261e-39
9.8782139 4.8190675 1.5185257 7.3752762e-39
10.149342 4.8191795 1.5139965 7.7404672e-39
10.312228 4.8139625 1.5047625 6.6359175e-39
10.500422 4.8210602 1.5049212 7.0976146e-39
10.666996 4.8168178 1.4904724 7.5582382e-39
10.868705 4.8162403 1.4387621 7.0972586e-39
11.05886 4.8521776 1.4780629 6.3614929e-39
11.278994 4.8191729 1.4696023 6.8210333e-39
11.402352 4.8704882 1.4324853 6.3611313e-39
11.605633 4.8379002 1.5900846 9.1262799e-39
12.120375 4.9405465 1.5854378 9.3103139e-39
-2.4792078 4.3817711 1.6983671 2.2956712e-38
-2.3883271 4.379396 1.769093 2.2034758e-38
-2.1105273 4.3913484 1.6947405 2.2864516e-38
-1.9170238 4.3977952 1.7043607 2.2587929e-38
-1.7855076 4.398232 1.7582107 2.1942561e-38
-1.4169111 4.3935914 1.7032833 1.4196328e-38
-1.2473872 4.3766732 1.7014377 1.3458761e-38
-1.1023065 4.378233 1.6986299 1.2813396e-38
-0.90277404 4.3796067 1.7001287 1.2259864e-38
-0.69118619 4.3965774 1.7006292 1.1430819e-38
-0.50127375 4.3967595 1.7050835 1.1246431e-38
-0.31736413 4.3973989 1.6964549 1.1522659e-38
-0.091824174 4.3978887 1.644486 1.1983997e-38
0.078778796 4.3960857 1.7124945 1.253789e-38
0.27748287 4.3970118 1.7263349 1.3367649e-38
0.4206723 4.3972716 1.6477799 7.1919752e-39
0.68107361 4.3700786 1.7125207 7.7462322e-39
0.87599713 4.3794656 1.6999029 8.6678297e-39
1.1127818 4.3857589 1.6926023 9.5905049e-39
1.2934221 4.3938646 1.6980854 1.032771e-38
1.482538 4.3951025 1.7289311 1.0696495e-38
1.6412897 4.3971825 1.6516232 1.0881244e-38
-2.056473 4.4033527 1.7066334 2.2772321e-38
-1.8897034 4.4048891 1.6977828 2.2495734e-38
-1.7858852 4.4043283 1.7592442 2.2034757e-38
-1.4238085 4.4034562 1.7194332 1.5118283e-38
-1.2883897 4.4018216 1.6872298 1.3643513e-38
-1.0964602 4.403172 1.6894463 1.2905232e-38
-0.89826208 4.4095774 1.7007154 1.2352059e-38
-0.68182951 4.4029522 1.6973648 1.1430462e-38
-0.40952185 4.4481468 1.7058551 1.0969483e-38
-0.30464745 4.4499826 1.6996415 1.1062039e-38
-0.074174166 4.4653893 1.699787 1.1431181e-38
0.09394034 4.4672208 1.6990107 1.2168388e-38
0.30217278 4.4880185 1.6999011 1.2905953e-38
0.57702744 4.498899 1.701741 1.4381442e-38
0.69544733 4.4993515 1.6993306 1.5026454e-38
0.89502925 4.5053391 1.6993062 1.6132802e-38
1.1487839 4.5099945 1.7016097 1.0508865e-38
1.2916366 4.5125904 1.6988785 1.0785094e-38
1.49314 4.5201616 1.6992451 1.0877291e-38
1.7477592 4.5433254 1.7005434 1.0047529e-38
1.8940864 4.5469465 1.6988295 9.6787461e-39
2.0923636 4.5532446 1.6992865 9.1255737e-39
2.2964468 4.5647936 1.699387 8.6645941e-39
2.5315728 4.5708966 1.6998948 7.5593256e-39
2.6936085 4.5734015 1.6989263 7.3745728e-39
2.8958774 4.5781078 1.7020276 7.2820198e-39
3.1911294 4.5943336 1.7065688 1.2995268e-38
3.2878904 4.5942783 1.6996717 1.2995625e-38
3.4734004 4.5965796 1.7075796 1.3179658e-38
3.6304629 4.5970116 1.72227 1.3732831e-38
3.8962576 4.5959158 1.7034755 1.4562232e-38
4.1203818 4.5715919 1.6994929 1.6776012e-38
4.346065 4.5687747 1.6989652 1.8251503e-38
4.5004144 4.5727997 1.6997702 1.9726631e-38
4.7009182 4.5732737 1.6996044 2.1019163e-38
4.9005194 4.5750027 1.6995676 2.1941838e-38
5.1005449 4.5781765 1.6997386 2.2310621e-38
5.300097 4.5795832 1.6995275 2.1572335e-38
5.5003991 4.58182 1.699753 2.0188323e-38
5.6167488 4.5821939 1.7073817 1.8896871e-38
5.8261461 4.5777121 1.704174 1.7513935e-38
2.5263405 4.6014681 1.6938264 1.4382515e-38
2.7570095 4.6029048 1.6861248 1.3368722e-38
2.9153538 4.6049037 1.6857444 1.2907025e-38
3.1768181 4.6021419 1.6889663 7.2816597e-39
3.3055966 4.6024666 1.7019975 1.2995268e-38
3.5098646 4.6041846 1.6917398 1.3179658e-38
3.7012191 4.6072903 1.7003911 1.4009417e-38
3.9359677 4.6269994 1.700794 1.5301605e-38
4.0966339 4.6312032 1.7005167 1.6131724e-38
4.356781 4.649929 1.7027715 1.0415592e-38
4.5853424 4.6635075 1.7053772 1.1153516e-38
4.69697 4.6637554 1.7000895 1.1429746e-38
4.9750495 4.6722794 1.7025987 1.1522297e-38
5.0966468 4.6746345 1.6999875 1.1522297e-38
5.3866773 4.6918807 1.6974642 1.0968765e-38
5.4913359 4.6915479 1.700731 1.0599625e-38
5.7645063 4.7026744 1.7010143 9.8642177e-39
5.8947644 4.7042441 1.7007931 9.4028823e-39
6.131845 4.7215137 1.7005107 8.4812847e-39
6.2927933 4.7231779 1.6986965 8.1121434e-39
6.5437641 4.7158618 1.7339191 7.7433595e-39
6.7094135 4.7209911 1.6992321 7.4671314e-39
6.8948441 4.7226868 1.7018913 7.5589669e-39
7.0952616 4.7260518 1.6973995 7.9273906e-39
7.3586979 4.7724285 1.7004668 8.2961718e-39
7.5207424 4.7353687 1.7008423 8.6649543e-39
7.6891098 4.7358112 1.7003062 9.309965e-39
7.8899779 4.7344918 1.6981918 1.0139364e-38
8.0949039 4.7335243 1.6982369 1.0876932e-38
8.3023977 4.7433348 1.7052096 1.1430103e-38
8.5019855 4.749886 1.6980046 1.1614494e-38
8.6905947 4.7525454 1.700024 1.1614494e-38
8.8875418 4.7598028 1.7057078 1.1337906e-38
9.1021347 4.7645454 1.6913049 1.0876925e-38
9.2874851 4.7627988 1.702442 1.013936e-38
9.4579697 4.7415361 1.6991163 8.6656647e-39
9.6754389 4.7334156 1.6796873 7.4660383e-39
9.8675919 4.755311 1.7221726 4.239557e-39
10.122795 4.7681203 1.7145796 5.2540649e-39
10.289474 4.779964 1.6949886 6.5448037e-39
10.500773 4.7871838 1.7080971 7.0057805e-39
10.704046 4.7866535 1.6811513 6.9135862e-39
10.888867 4.7857275 1.7213215 5.7146815e-39
11.095428 4.7790008 1.7137274 5.0693135e-39
11.261249 4.7816052 1.7195991 4.3317541e-39
5.0832396 4.8107901 1.7629557 1.3829709e-38
5.395092 4.809957 1.6340878 1.5858367e-38
5.5061994 4.8203483 1.6371679 1.5950564e-38
5.6970911 4.8304658 1.6621267 1.6227511e-38
5.9030972 4.8251486 1.6326985 1.6595571e-38
6.0970802 4.8022585 1.6858535 1.1432615e-38
6.2726407 4.811131 1.6757404 9.957484e-39
6.5020814 4.8169641 1.686017 9.2195602e-39
6.6779432 4.8214674 1.7172203 8.5745495e-39
6.8082604 4.8357534 1.7329359 8.3901554e-39
7.6896691 4.8047528 1.7455786 8.5738278e-39
7.9362984 4.802434 1.6742421 9.7730927e-39
8.1544733 4.8022723 1.7209505 1.0969126e-38
8.3041258 4.8076439 1.6956531 1.1337909e-38
8.4989758 4.8119512 1.7022589 1.1614493e-38
8.6804438 4.8161721 1.7065181 1.1614494e-38
8.9080095 4.8274598 1.6950113 1.1337906e-38
9.1052971 4.8314815 1.7023213 1.0876926e-38
9.3093691 4.8284383 1.7000756 1.0047524e-38
9.4965286 4.8157654 1.6815349 8.4819951e-39
9.6924763 4.8349867 1.7341447 6.9150282e-39
9.8699741 4.8515935 1.7049246 5.4395436e-39
10.135968 4.822186 1.6740347 4.8838488e-39
10.279659 4.8116565 1.635259 6.8203102e-39
10.477966 4.8116078 1.6672506 6.9135848e-39
10.672413 4.8120465 1.6867721 7.0979747e-39
10.900648 4.8096547 1.710983 6.268214e-39
11.103526 4.8138828 1.6848116 5.3462605e-39
11.285719 4.819397 1.6584893 6.3600439e-39
11.521113 4.8192153 1.702951 6.8213948e-39
11.666407 4.8367119 1.665738 7.1901745e-39
10.374359 5.0011687 1.7225422 9.5886986e-39
10.497551 5.0115838 1.7137798 8.6667423e-39
10.674083 5.0112786 1.7182316 6.3611313e-39
10.899361 5.0127597 1.7417512 3.5016361e-39
-2.4585347 4.3810782 1.9018399 2.1850367e-38
-2.3795815 4.3843517 1.9177784 2.1389029e-38
-2.1162629 4.3904686 1.8997645 2.1850364e-38
-1.9144648 4.3982382 1.8824365 2.1665973e-38
-1.7764466 4.3978896 1.8712177 2.1112802e-38
-1.416594 4.3949776 1.8956717 1.438036e-38
-1.2470901 4.3777981 1.901517 1.3827184e-38
-1.1024061 4.3778477 1.8979728 1.3273654e-38
-0.90553248 4.379024 1.9005558 1.253645e-38
-0.68473977 4.3969045 1.9017677 1.1430464e-38
-0.50439602 4.3971448 1.887336 1.1246433e-38
-0.33244604 4.3967147 1.9117703 1.1614856e-38
-0.16817169 4.3984475 1.950163 1.2260225e-38
0.099778771 4.3962755 1.903662 1.4472915e-38
0.3027294 4.3976169 1.8948308 1.5026449e-38
0.4289445 4.3955293 1.8721695 1.087944e-38
0.68931818 4.3722677 1.9032674 7.5618423e-39
0.9107675 4.3765078 1.8995262 8.3001262e-39
1.0939599 4.3846097 1.8967109 9.2217224e-39
1.2939937 4.3942137 1.9447449 1.4567627e-38
1.4909883 4.3956509 1.9118371 1.1157469e-38
1.6288922 4.3972745 1.9464248 1.1987227e-38
1.8115236 4.3925953 1.8700365 1.7609002e-38
-2.2335014 4.4000053 1.8304116 2.194256e-38
-2.048593 4.4038186 1.8950459 2.1850364e-38
-1.8908168 4.4054675 1.9035723 2.1297192e-38
-1.7759558 4.4078622 1.9182098 2.0651824e-38
-1.4126221 4.4019523 1.9168347 1.4564393e-38
-1.3004739 4.4025736 1.9119411 1.4011578e-38
-1.0916321 4.4026346 1.9129373 1.318146e-38
-0.88839114 4.4088006 1.8980031 1.2536093e-38
-0.69465822 4.4035363 1.8980712 1.1522659e-38
-0.40843338 4.4506679 1.8934546 1.0969845e-38
-0.30443048 4.452198 1.8991796 1.1062041e-38
-0.077452309 4.4657326 1.8984632 1.1246433e-38
0.14694253 4.4724379 1.9463549 1.1799966e-38
0.30496186 4.4887409 1.8975538 1.2353141e-38
0.57541758 4.4998446 1.8986219 1.3736077e-38
0.69291085 4.5001698 1.8988789 1.4473282e-38
0.89505118 4.5046387 1.9005163 1.576366e-38
1.1512148 4.5109491 1.8976693 1.004789e-38
1.2979814 4.5123525 1.9003271 1.0508149e-38
1.4986345 4.519486 1.8996252 1.1153157e-38
1.7527587 4.5468984 1.8975953 1.0139364e-38
1.8942255 4.5487337 1.8999069 1.0323394e-38
2.0903158 4.5539865 1.900816 1.0139003e-38
2.2947741 4.564003 1.8985953 9.4939919e-39
2.5338247 4.5720911 1.8989201 8.203616e-39
2.6943531 4.5738339 1.8996606 7.8348335e-39
2.8946586 4.5769472 1.9000142 7.558248e-39
3.1905153 4.5962849 1.8912983 1.3272215e-38
3.2824926 4.5957112 1.9005954 1.3456605e-38
3.4854228 4.5966883 1.878466 1.4285644e-38
3.6740789 4.5981174 1.895165 1.5851889e-38
3.8419178 4.596415 1.9087213 1.6681287e-38
4.1204081 4.5633168 1.8991845 1.5945894e-38
4.3465028 4.5616589 1.9003836 1.7236993e-38
4.5020685 4.5620618 1.8986406 1.8619926e-38
4.7003531 4.5664515 1.9004378 2.0187966e-38
4.9003339 4.5669584 1.8996658 2.1295391e-38
5.10041 4.5676894 1.8995975 2.1479781e-38
5.3002329 4.5692801 1.8995419 2.0556744e-38
5.5004735 4.5716047 1.8996174 1.8896864e-38
5.6257644 4.575007 1.9041988 1.760577e-38
5.8332381 4.567894 1.9026126 1.6315034e-38
2.5389216 4.6005373 1.9900521 1.7791952e-38
2.7791402 4.6031809 1.8926227 1.5027523e-38
2.9080491 4.6025105 1.9227083 1.1707763e-38
3.1926429 4.6013331 1.9255991 1.2074392e-38
3.3078289 4.603116 1.8941064 1.3456606e-38
3.4975419 4.6043429 1.9165673 1.419381e-38
3.6943719 4.6067472 1.8975121 1.5667859e-38
3.9394789 4.630084 1.896171 1.5670028e-38
4.0927653 4.6318164 1.9001174 1.6776016e-38
4.3567157 4.6528869 1.8966576 1.0323397e-38
4.5802689 4.6644993 1.8908819 1.0784735e-38
4.6944017 4.6670794 1.9002516 1.133683e-38
4.9755492 4.6735401 1.8940516 1.124571e-38
5.0948892 4.6755037 1.9004143 1.1337547e-38
5.3865447 4.6934814 1.9032247 1.0508147e-38
5.4924464 4.691103 1.8987423 1.0415232e-38
5.7645421 4.7035317 1.8977647 9.863859e-39
5.8938298 4.703115 1.9001271 9.679109e-39
6.1289549 4.7205248 1.8986148 8.5727629e-39
6.2943125 4.7217631 1.8996119 8.2958158e-39
6.4943042 4.7260976 1.9004893 8.1110644e-39
6.7044287 4.7190952 1.8990239 7.7429994e-39
6.8946152 4.7196627 1.8988963 7.8348363e-39
7.0951996 4.7214046 1.9034966 8.2032601e-39
7.3563228 4.7711554 1.9014795 8.3883702e-39
7.5192628 4.7328248 1.9010344 8.8489896e-39
7.6936607 4.7323608 1.8987449 9.6787475e-39
7.8966742 4.7300644 1.899827 1.0784376e-38
8.1041489 4.7298088 1.8956805 1.1521941e-38
8.3030977 4.7365136 1.897471 1.1890725e-38
8.4994717 4.7478247 1.90722 1.1891084e-38
8.7001419 4.7497306 1.8943309 1.1614498e-38
8.9008389 4.7505498 1.9014733 1.0969126e-38
9.1049156 4.7566848 1.9101602 1.0139363e-38
9.3107548 4.7595325 1.9037393 9.6787433e-39
9.4775562 4.7515597 1.8788687 8.7571457e-39
9.7102013 4.7515564 1.9129113 7.4660468e-39
9.9169407 4.7553306 1.9033296 6.7284803e-39
10.106388 4.7655311 1.8978297 6.3596964e-39
10.299936 4.7739873 1.9120957 6.3604139e-39
10.487044 4.7782698 1.8931371 6.4522494e-39
10.720443 4.7749829 1.8429782 6.1756639e-39
10.845032 4.7731185 1.8750732 5.5302973e-39
11.038062 4.7893729 1.8799433 5.9912726e-39
5.123805 4.8072677 1.8378839 1.3921903e-38
5.3156633 4.8111959 1.8642666 1.4752018e-38
5.5277505 4.8205705 1.8897619 1.5397389e-38
5.7151914 4.8160677 1.8609042 1.6320068e-38
5.8830094 4.8171554 1.8751415 1.6503741e-38
6.0426898 4.8169141 1.909875 1.1432618e-38
6.2574062 4.8088408 1.8258566 9.7727368e-39
6.671525 4.819046 1.8015503 8.5741908e-39
7.4762077 4.8042445 1.9002349 7.3749343e-39
7.6740708 4.8092475 1.8871933 7.5593228e-39
7.9801917 4.8021955 1.8549128 9.6805425e-39
8.1629028 4.8018227 1.890269 1.1245356e-38
8.3183174 4.8047791 1.8946596 1.1706334e-38
8.499198 4.8080969 1.9070135 1.1707053e-38
8.7014675 4.8149261 1.8923728 1.152266e-38
8.90413 4.819231 1.9048392 1.1061682e-38
9.1117229 4.8285637 1.901073 1.0508504e-38
9.3066969 4.8298001 1.8825859 9.9553288e-39
9.5068579 4.8335023 1.9106889 8.6656717e-39
9.7157316 4.8375878 1.9161258 7.2823758e-39
9.8955393 4.8410678 1.9159405 6.7284761e-39
10.08436 4.858757 1.8855377 5.991267e-39
10.310363 4.8109264 1.9104482 6.4515305e-39
10.491782 4.8085275 1.8944387 6.5440848e-39
10.688958 4.8456888 1.8723752 6.7288376e-39
10.888548 4.8951669 1.9488351 6.5448051e-39
11.131608 4.8333712 1.9372309 6.4522536e-39
11.374547 4.9431977 1.9953077 6.7299152e-39
11.570608 4.8222537 1.8336846 6.7284747e-39
11.699979 4.8403101 1.8551642 7.0050616e-39
10.563617 5.0013571 1.8312144 6.5458869e-39
10.784741 5.0044441 1.9772511 6.7288362e-39
10.904568 5.0110307 1.9574656 6.8210319e-39
11.042872 5.0137782 1.9435161 7.0054259e-39
-2.4550664 4.3792925 2.0976079 1.7978155e-38
-2.3613806 4.3816814 2.1127012 1.9545119e-38
-2.1125634 4.3929329 2.0995979 1.9914255e-38
-1.8895091 4.3971343 2.1247194 1.9176334e-38
-1.7655133 4.3973083 2.1520658 1.843877e-38
-1.4224858 4.3940816 2.0962799 1.3550597e-38
-1.2531086 4.3772407 2.1010988 1.2904869e-38
-1.1035674 4.3793139 2.0994387 1.3641712e-38
-0.90503776 4.3793807 2.0992084 1.4286723e-38
-0.68994486 4.3969369 2.1059446 1.2904507e-38
-0.51125032 4.3967347 2.0940218 1.2904153e-38
-0.33923677 4.3969035 2.0979586 1.2443896e-38
-0.11684424 4.395761 2.1045494 1.2260582e-38
0.108311 4.3956256 2.0637527 1.3734988e-38
0.25041008 4.3980212 2.1073174 1.355096e-38
0.47925654 4.3969383 2.0971236 8.2064802e-39
0.70275277 4.3681536 2.0879405 8.7600198e-39
0.88516289 4.3724604 2.0963857 9.8663673e-39
1.1049137 4.3792152 2.1004369 1.1156383e-38
1.3092041 4.3868971 2.104037 1.1801751e-38
1.5024068 4.3910065 2.1073396 1.1986142e-38
1.6908486 4.3972545 2.1028221 1.1525168e-38
1.8227288 4.3974147 2.1716967 9.2206462e-39
-2.301671 4.4093542 2.1671803 6.4554849e-39
-2.0438085 4.403976 2.1065228 1.9729863e-38
-1.8983666 4.4052877 2.0869639 1.9453279e-38
-1.7560252 4.4078407 2.1082137 1.8715357e-38
-1.4195246 4.4018679 2.115375 1.3458041e-38
-1.2873867 4.4030352 2.0977755 1.4010856e-38
-1.0930462 4.4045763 2.1091845 1.456331e-38
-0.8959561 4.4087319 2.0980904 1.4470755e-38
-0.68590099 4.4043503 2.1001918 1.3180734e-38
-0.41327643 4.4497118 2.1087005 1.2351693e-38
-0.30681714 4.4541745 2.098443 1.2443533e-38
-0.076223381 4.4668918 2.1017091 1.2167305e-38
0.19146898 4.4727159 2.1680009 1.189144e-38
0.30140677 4.4892988 2.1003654 1.2259864e-38
0.56858772 4.4957905 2.1070442 1.2905955e-38
0.69924772 4.5032325 2.0991986 1.3366575e-38
0.89109421 4.5052476 2.0989845 1.4195976e-38
1.1408131 4.5074487 2.103127 8.8493469e-39
1.2940897 4.5145426 2.0981715 9.1255751e-39
1.4927208 4.5197539 2.0999784 9.4018019e-39
1.7460171 4.5452514 2.1016252 8.7567912e-39
1.893422 4.5521841 2.0981524 8.7567898e-39
2.0907488 4.5557113 2.0995417 9.2166875e-39
2.297101 4.565465 2.0980847 9.9538854e-39
2.5330465 4.5724583 2.1000125 8.8482595e-39
2.6973269 4.5761046 2.0988638 9.2163218e-39
2.8956506 4.5786448 2.0975223 9.0319333e-39
3.1907415 4.5958343 2.1247976 1.6128109e-38
3.2897532 4.5962067 2.094084 1.5022847e-38
3.4806352 4.5974255 2.0848203 1.4009421e-38
3.6512032 4.5978031 2.1430321 1.4101257e-38
3.8513439 4.5946116 2.1132238 1.3549163e-38
4.1223936 4.5536957 2.0986879 1.4747711e-38
4.3497872 4.5532155 2.0516577 1.6130645e-38
4.4975538 4.557075 2.0454705 1.7513218e-38
4.6968422 4.5589709 2.0362105 1.9173095e-38
4.8954563 4.5616856 2.0280263 2.0464191e-38
5.0932188 4.56182 2.0200975 2.0740776e-38
5.2910008 4.5644917 2.0131388 1.9634425e-38
5.4852543 4.5660892 2.007118 1.7974902e-38
5.6385431 4.5804396 2.0068192 1.6499422e-38
5.8418064 4.5517893 2.101855 1.4563674e-38
2.7589371 4.6040215 2.0404718 1.6501567e-38
2.9369888 4.6009855 2.1259162 1.0969474e-38
3.195025 4.6020136 2.1164336 1.6128106e-38
