# .PCD v0.7 - Point Cloud Data file format
VERSION 0.7
FIELDS x y z rgb
SIZE 4 4 4 4
TYPE F F F F
COUNT 1 1 1 1
WIDTH 1064
HEIGHT 1
VIEWPOINT 0 0 0 1 0 0 0
POINTS 1064
DATA ascii
-4.7832556 13.666997 0.37413931 8.2968864e-39
-4.8126831 13.854056 0.38073289 1.1246784e-38
-4.841538 14.134384 0.37541655 1.4197045e-38
-4.8517904 14.315932 0.35012513 1.4288885e-38
-4.8570752 14.548863 0.38309798 1.4657666e-38
-4.8647966 14.703032 0.36006004 1.4841701e-38
-4.8733091 14.968815 0.38254547 1.5303037e-38
-4.8813777 15.10871 0.36469758 1.5395231e-38
-4.8875909 15.352405 0.38111144 1.5395232e-38
-4.9016552 15.537866 0.36327451 1.5395232e-38
-4.9036016 15.722653 0.32912332 1.5487431e-38
-4.9026136 15.832211 0.37401986 1.5394874e-38
-4.2768078 2.3251524 0.49101382 5.0675226e-39
-4.2929125 2.4560452 0.51302582 8.9408153e-39
-4.2693906 2.6428776 0.50417197 4.3321156e-39
-4.3695812 4.36517 0.4938519 2.8548135e-39
-4.3849015 4.5100579 0.50426757 5.9005161e-39
-4.4018207 4.726234 0.5375917 1.0048594e-38
-4.3943715 4.6998243 0.5063718 1.0417022e-38
-4.4045186 4.8955407 0.54560125 1.0508856e-38
-4.397459 4.8317695 0.52299953 1.004751e-38
-4.4086003 5.0783319 0.57694352 1.1061669e-38
-4.3987832 5.052258 0.54758495 1.0692888e-38
-4.4175129 5.259378 0.55440509 1.0508496e-38
-4.3950601 5.2687588 0.51997578 9.4950695e-39
-4.4337144 5.4948721 0.54879051 9.7712934e-39
-4.3743567 5.5160708 0.49841651 9.7716578e-39
-4.4402437 5.6625943 0.57591981 1.0138642e-38
-4.3884859 5.6706839 0.50704753 9.8638548e-39
-4.4443388 5.8838973 0.51964188 1.0047523e-38
-4.3945365 5.8551846 0.51888883 1.0047887e-38
-4.4534369 6.0863948 0.5626002 1.0231554e-38
-4.3955617 6.0372944 0.52466387 1.0140443e-38
-4.4590125 6.243866 0.58393979 1.0323032e-38
-4.3906922 6.2838178 0.49496046 1.0140802e-38
-4.4477601 6.4877706 0.53628212 1.0047882e-38
-4.394825 6.4381933 0.5664016 1.0141158e-38
-4.4575052 6.6791215 0.56714213 9.8634933e-39
-4.3912673 6.6876106 0.49585164 9.4965156e-39
-4.46136 6.8305821 0.58523273 9.771299e-39
-4.3955302 6.8559279 0.48245734 9.4965142e-39
-4.4705834 7.0790386 0.55639648 9.8627716e-39
-4.3893361 7.0745354 0.54049617 7.4682062e-39
-4.480567 7.2451844 0.5842641 9.770576e-39
-4.3765349 7.2865539 0.44706637 5.2551509e-39
-4.4815617 7.4820495 0.54013848 9.9549686e-39
-4.3868203 7.4528327 0.49665269 5.3480626e-39
-4.4918885 7.6579404 0.5754866 1.013864e-38
-4.3939514 7.6767302 0.47575569 5.3473437e-39
-4.6057773 7.9400411 0.45303747 1.4288883e-38
-4.5176926 7.8899369 0.53637761 1.0415587e-38
-4.3914938 7.9369493 0.47157726 5.3477011e-39
-4.6009927 8.1669178 0.47188625 1.4842052e-38
-4.5257082 8.0706186 0.56617409 1.0599616e-38
-4.3950191 8.0657969 0.46068487 5.3476997e-39
-4.6024199 8.3736706 0.49448091 1.5210118e-38
-4.5257297 8.233386 0.58386213 1.0416667e-38
-4.3920269 8.3011026 0.49789551 5.5320937e-39
-4.6030207 8.4909515 0.50219995 1.5486343e-38
-4.5244184 8.4820328 0.5529266 1.0325552e-38
-4.3903174 8.5001011 0.47294661 5.3484241e-39
-4.6021757 8.7476206 0.54548031 1.5578539e-38
-4.5318255 8.6547203 0.58302253 1.0417386e-38
-4.3871083 8.6259518 0.46018648 5.255867e-39
-4.6015229 8.9301109 0.55038857 1.5393429e-38
-4.5580239 8.8944817 0.52940601 6.2689427e-39
-4.3873925 8.868576 0.54402262 5.900872e-39
-4.6038089 9.1312227 0.51938087 1.5393073e-38
-4.5665188 9.0742435 0.5623644 6.1771016e-39
-4.3916364 9.055913 0.54153961 6.0849046e-39
-4.6140356 9.3693581 0.5851683 1.5116483e-38
-4.573843 9.2303352 0.58762354 6.1763841e-39
-4.392159 9.3490973 0.50780529 6.1767415e-39
-4.6142406 9.489953 0.56612748 1.4932451e-38
-4.5836515 9.4885559 0.54986823 5.9008762e-39
-4.3947611 9.4670181 0.49353239 6.0849046e-39
-4.6169939 9.7259979 0.57328546 1.0048238e-38
-4.5939403 9.6478558 0.57824993 5.7161262e-39
-4.6036959 9.9682102 0.53961605 5.7157675e-39
-4.5884814 9.8916864 0.52968246 5.7157647e-39
-4.6068935 10.102313 0.56759018 5.5310133e-39
-4.5971746 10.030011 0.54596519 5.5310161e-39
-4.6131134 10.231626 0.58696014 5.3466277e-39
-4.5883217 10.292573 0.50444353 5.4391764e-39
-4.6072268 10.521161 0.54511309 5.2547852e-39
-4.5961523 10.433761 0.52737629 5.3469808e-39
-4.6190572 10.675236 0.57210797 5.2547866e-39
-4.5957818 10.652219 0.50625223 5.255504e-39
-4.6283031 10.821212 0.58283442 5.3466207e-39
-4.5902448 10.8797 0.50383705 5.3473409e-39
-4.6351008 11.082488 0.56146723 5.439538e-39
-4.5982347 11.075513 0.54067171 5.439538e-39
-4.6442971 11.234437 0.58507872 5.6232132e-39
-4.5957575 11.224646 0.51731455 5.5317322e-39
-4.6441746 11.498099 0.54804158 5.7157647e-39
-4.5913739 11.443525 0.49759623 5.4406184e-39
-4.6540732 11.668262 0.57926631 5.807603e-39
-4.5946612 11.636584 0.54157913 5.7164822e-39
-4.6637807 11.898445 0.51919603 5.624288e-39
-4.5962386 11.86556 0.52821565 6.5462428e-39
-4.6743226 12.092134 0.55389118 5.6239306e-39
-4.6832075 12.245984 0.58163512 5.6239306e-39
-4.8047843 12.576365 0.50883138 1.5027532e-38
-4.6844349 12.484389 0.54070193 5.4398967e-39
-4.8070335 12.705871 0.47430491 1.4935338e-38
-4.6929049 12.658778 0.5755682 5.3473437e-39
-4.8034577 12.977921 0.43800023 1.3919742e-38
-4.7048416 12.894213 0.5290215 5.2551495e-39
-4.8016295 13.178931 0.50420564 1.3920097e-38
-4.7168903 13.07858 0.56454349 5.071117e-39
-4.8023329 13.37122 0.49407756 1.1985066e-38
-4.7210975 13.240218 0.58973587 5.0703995e-39
-4.8026776 13.541738 0.50130522 1.1339697e-38
-4.7555351 13.49918 0.54440343 5.1629497e-39
-4.8053536 13.734985 0.52426887 9.4957855e-39
-4.7658658 13.666865 0.57251573 5.1633084e-39
-4.8060961 13.923592 0.54022598 8.5741894e-39
-4.7946095 13.867743 0.50080585 8.4816378e-39
-4.813283 14.078619 0.55599332 8.6663864e-39
-4.81745 14.233191 0.58656669 8.7582247e-39
-4.8483081 14.427782 0.59232545 1.1800683e-38
-4.8570924 14.767006 0.57644582 1.5671461e-38
-4.8658915 14.922099 0.57426262 1.585513e-38
-4.874249 15.096866 0.54399359 1.5671818e-38
-4.8815651 15.335778 0.58144099 1.585549e-38
-4.8935556 15.517109 0.55084074 1.5763653e-38
-4.8912721 15.781816 0.58678383 1.5486709e-38
-4.8994865 15.868344 0.57564247 1.5579265e-38
-4.2291012 2.1469362 0.71952748 4.6068836e-39
-4.2764535 2.3472984 0.69423115 4.8838488e-39
-4.2903171 2.4806657 0.70092577 8.7564254e-39
-4.2642961 2.6442728 0.70687002 3.8711347e-39
-4.3755498 4.3824005 0.74651825 1.9357551e-39
-4.4030313 4.5420485 0.75451052 1.3457333e-38
-4.383492 4.4775562 0.73959076 9.7716648e-39
-4.4018927 4.75845 0.65187395 1.0786161e-38
-4.3928251 4.6897917 0.70496809 1.0601772e-38
-4.4070768 4.9113946 0.69753462 1.1154584e-38
-4.3970037 4.8449302 0.73397768 1.1062387e-38
-4.4129734 5.105844 0.70157158 1.1338618e-38
-4.3980465 5.0248284 0.63195443 1.0969475e-38
-4.4226313 5.2912631 0.70887339 1.1615206e-38
-4.3946662 5.2783766 0.69588906 9.7712976e-39
-4.4313931 5.485467 0.74499762 1.1799955e-38
-4.39434 5.4252539 0.77572954 1.0047885e-38
-4.4358306 5.673131 0.77902293 1.2075825e-38
-4.3863916 5.6972084 0.70003486 1.032447e-38
-4.4528561 5.8996806 0.7180196 1.0784365e-38
-4.395915 5.8870993 0.70353675 1.050886e-38
-4.4618664 6.0929589 0.75247431 1.0692529e-38
-4.3969131 6.0105286 0.76109773 1.0693611e-38
-4.4660425 6.2578235 0.7839672 1.0691809e-38
-4.3963447 6.2234521 0.74948853 1.0877642e-38
-4.4722805 6.4929175 0.73445678 1.0324107e-38
-4.3958631 6.4448457 0.65467167 1.0417026e-38
-4.481946 6.6813116 0.76696867 1.0047519e-38
-4.3906193 6.6728806 0.70146656 9.7730983e-39
-4.4886446 6.82164 0.7880761 9.770576e-39
-4.394805 6.8499494 0.65272844 9.4043214e-39
-4.4779344 7.0937414 0.74305195 9.7709333e-39
-4.3936176 7.0687881 0.71431756 5.440261e-39
-4.4860749 7.2787027 0.7761451 9.6783817e-39
-4.3735127 7.2408423 0.78227168 5.4398953e-39
-4.4959397 7.4956894 0.73073971 9.7705746e-39
-4.3918295 7.5328436 0.67336822 5.2558656e-39
-4.5036025 7.6888528 0.7659322 9.9542456e-39
-4.3961248 7.6857495 0.70951033 5.1636671e-39
-4.603159 7.9305902 0.66227424 1.4105564e-38
-4.5091152 7.8252516 0.78721523 1.0138635e-38
-4.3930278 7.894454 0.77898884 5.0714715e-39
-4.6070061 8.125453 0.72509259 1.4289598e-38
-4.5144148 8.0936594 0.75429112 1.0599615e-38
-4.3847904 8.1340847 0.66091269 5.3476997e-39
-4.6032791 8.3822947 0.69587427 1.4934249e-38
-4.5231543 8.2543497 0.78160036 1.0784008e-38
-4.389626 8.2913151 0.65844566 5.4398953e-39
-4.6047144 8.5166845 0.68901795 1.5210836e-38
-4.5458212 8.5001154 0.74381632 1.1152786e-38
-4.3939295 8.5180206 0.71365225 5.5320909e-39
-4.6034403 8.7170315 0.7662971 1.5579261e-38
-4.5564013 8.6816807 0.77563035 1.1152787e-38
-4.3934197 8.7001982 0.67590016 5.7164794e-39
-4.6010432 8.9757528 0.71945524 1.5484906e-38
-4.5562501 8.8478336 0.76138383 1.0785087e-38
-4.3762922 8.9090958 0.64383662 5.808675e-39
-4.6023412 9.1132574 0.72296089 1.5484904e-38
-4.5586071 9.0787544 0.76017064 1.0509939e-38
-4.3958383 9.0358829 0.64865196 6.1767401e-39
-4.6041484 9.3516722 0.77579635 1.5116839e-38
-4.5647225 9.2383785 0.78702712 1.041739e-38
-4.3940735 9.3159666 0.66507828 6.0852605e-39
-4.6062312 9.5320511 0.77187264 1.023227e-38
-4.5879116 9.4937782 0.73863894 5.8083205e-39
-4.3967681 9.4987211 0.71570444 6.1774575e-39
-4.6040902 9.7256622 0.78244579 5.4398939e-39
-4.5949211 9.6471615 0.7638883 5.5320937e-39
-4.6059899 9.8191566 0.78952217 5.3473451e-39
-4.5977411 9.8227968 0.69228506 5.6235705e-39
-4.3931327 9.8681765 0.75696015 6.3618502e-39
-4.6153183 10.088909 0.7578032 5.3469822e-39
-4.5957403 10.044867 0.73838985 5.4395352e-39
-4.6244354 10.244835 0.78475004 5.1629525e-39
-4.5818505 10.311853 0.70450366 5.4391764e-39
-4.6287875 10.491007 0.73678935 5.254788e-39
-4.5935206 10.481285 0.71090758 5.3473395e-39
-4.6374402 10.679132 0.76992285 5.2547908e-39
-4.5963392 10.620662 0.73223507 5.3473409e-39
-4.643795 10.820315 0.78743505 5.3469822e-39
-4.5956869 10.837572 0.73733908 5.4398953e-39
-4.6434655 11.092322 0.75005972 5.715406e-39
-4.5956073 11.053139 0.7098459 5.6242865e-39
-4.6514063 11.259235 0.77955782 5.8079631e-39
-4.5972481 11.253383 0.71386611 5.7168423e-39
-4.6593461 11.496282 0.73734003 5.9927103e-39
-4.5889668 11.470106 0.70906186 5.9930677e-39
-4.6683521 11.681598 0.76702946 6.084906e-39
-4.5911508 11.647935 0.69786 5.9930691e-39
-4.6768436 11.819225 0.79141647 5.9927145e-39
-4.5963616 11.844317 0.73928446 6.0852633e-39
-4.6829491 12.08868 0.7562114 5.9927131e-39
-4.8050079 12.359235 0.68621957 1.5211567e-38
-4.6910143 12.248113 0.78462523 5.8083247e-39
-4.8052859 12.516011 0.64484823 1.539596e-38
-4.7015743 12.491462 0.72919619 5.6242894e-39
-4.8058877 12.771355 0.70658112 1.5395956e-38
-4.7135358 12.685721 0.76489437 5.3473465e-39
-4.8025451 12.97045 0.67562187 1.4842775e-38
-4.7121596 12.904629 0.72269678 5.2551495e-39
-4.8025379 13.167697 0.66964972 1.4105568e-38
-4.7253675 13.069081 0.75191647 4.9792829e-39
-4.8020148 13.368007 0.76385999 1.3827903e-38
-4.7328882 13.298962 0.70930403 5.071117e-39
-4.8040652 13.564441 0.66029906 1.1431892e-38
-4.7452817 13.46102 0.73740894 4.9789241e-39
-4.8025661 13.743443 0.65214431 8.9426132e-39
-4.7725596 13.701403 0.69819117 5.2558642e-39
-4.8077583 13.935349 0.70066494 8.758938e-39
-4.7818065 13.897689 0.71892548 5.3477039e-39
-4.8032627 14.03262 0.75324792 5.5324553e-39
-4.7929006 14.018637 0.74281037 5.4402596e-39
-4.8288336 14.29707 0.70271313 9.1273646e-39
-4.8413105 14.463985 0.73142993 9.3113999e-39
-4.8685184 14.676945 0.73824346 1.2445693e-38
-4.8559523 14.908207 0.75796795 1.6223914e-38
-4.8661318 15.178604 0.78116715 1.6500138e-38
-4.8663969 15.32023 0.77469242 1.6223555e-38
-4.8744326 15.510326 0.73957491 1.6039521e-38
-4.89048 15.766247 0.78515553 1.5578187e-38
-5.0113926 15.953033 0.79429036 1.6134951e-38
-4.8881955 15.814596 0.77403039 1.5486704e-38
-4.2761264 2.3702552 0.8719247 4.976406e-39
-4.4562416 2.5704765 0.98805988 1.1520473e-38
-4.2902317 2.4951501 0.90851021 8.5716754e-39
-4.4701653 2.702527 0.98112053 1.2344446e-38
-4.2948217 2.6215086 0.94554186 8.8489742e-39
-4.4721384 2.9045441 0.97499692 1.603444e-38
-4.4817457 3.1035624 0.9676733 1.6218104e-38
-4.4774156 3.3417287 0.92646831 1.0962592e-38
-4.4899812 3.4173622 0.95606208 1.6865639e-38
-4.347724 4.1823659 0.87165612 6.8173885e-39
-4.3755603 4.3766565 0.89240229 1.3825771e-39
-4.4024038 4.5609946 0.86649287 1.3549889e-38
-4.3904362 4.4922776 0.90188301 1.0877652e-38
-4.4010739 4.6167054 0.96820205 1.3364775e-38
-4.3949723 4.6061959 0.95426518 1.3457694e-38
-4.4047174 4.9435902 0.88863707 1.1338976e-38
-4.3952923 4.8711982 0.90674931 1.106275e-38
-4.4129801 5.1041484 0.90216851 1.1615562e-38
-4.3971338 5.0224156 0.97057217 1.0970916e-38
-4.4249225 5.3046465 0.90024143 1.2076181e-38
-4.3975511 5.2255487 0.96264809 1.023191e-38
-4.4350257 5.5036397 0.89876962 1.2444964e-38
-4.3969316 5.4344153 0.91107225 1.0508858e-38
-4.4426918 5.7030339 0.90031934 1.2629359e-38
-4.3837132 5.7118306 0.90210766 1.0786166e-38
-4.450346 5.8460736 0.90813619 1.2537885e-38
-4.3935766 5.8888016 0.90866834 1.1062754e-38
-4.4653172 6.1059842 0.90091234 1.1246421e-38
-4.3970265 6.0253549 0.8683399 1.1062032e-38
-4.4716735 6.305233 0.90163594 1.0969118e-38
-4.3947511 6.2991729 0.89672035 1.1062395e-38
-4.480073 6.4530907 0.91839248 1.0692534e-38
-4.3962064 6.4491096 0.90395808 1.0970198e-38
-4.4851623 6.7035179 0.89933568 1.0323747e-38
-4.3898897 6.7103548 0.88368529 1.0050045e-38
-4.4937558 6.9036169 0.90849078 9.7709333e-39
-4.3947301 6.8303084 0.96435952 1.0141884e-38
-4.5031257 7.0487871 0.93425697 9.4025151e-39
-4.393024 7.0891562 0.90064949 5.7168465e-39
-4.4911466 7.3064642 0.89837998 9.5869008e-39
-4.3817692 7.2742038 0.90832943 5.7168409e-39
-4.5010691 7.4989247 0.91515279 9.4943464e-39
-4.3886495 7.5211172 0.86973435 5.3480584e-39
-4.5109758 7.6562409 0.94416237 9.4943506e-39
-4.3955908 7.6747904 0.86411905 5.2555026e-39
-4.6031127 7.922184 0.85282421 1.4105567e-38
-4.5166173 7.8997974 0.90451783 1.0139356e-38
-4.3928585 7.8762074 0.8237915 5.0714729e-39
-4.6034541 8.150342 0.89464909 1.4197761e-38
-4.5281725 8.096818 0.93765086 1.0507779e-38
-4.3839035 8.1316748 0.90247345 5.0714757e-39
-4.6016426 8.3551521 0.88686144 1.4934244e-38
-4.536202 8.212059 0.96602815 1.0692176e-38
-4.3847613 8.3040361 0.92668736 5.1640259e-39
-4.6030512 8.5368519 0.8929109 1.530339e-38
-4.5404434 8.4911013 0.92356861 1.1153152e-38
-4.3838906 8.5010567 0.88600349 5.2558628e-39
-4.6048532 8.7076311 0.84703052 1.5671456e-38
-4.5612965 8.7056932 0.8995536 1.1429736e-38
-4.3776002 8.6532106 0.95947182 5.4398953e-39
-4.6017165 8.957345 0.85530579 1.5854409e-38
-4.5701113 8.8703661 0.91041565 1.1429378e-38
-4.3908401 8.8681307 0.96789169 5.7164822e-39
-4.6009159 9.1550674 0.86494368 1.5485264e-38
-4.5636516 9.1015606 0.90215826 1.0786884e-38
-4.3822694 9.1263609 0.92739868 5.8086764e-39
-4.6038356 9.3355608 0.971699 1.5393423e-38
-4.5735178 9.3050508 0.90152711 1.0418105e-38
-4.3938098 9.3236399 0.894876 5.9930677e-39
-4.6014647 9.5878687 0.91130829 6.1767415e-39
-4.5824041 9.4142618 0.9358474 1.0233358e-38
-4.3866944 9.5434055 0.90051717 5.7164808e-39
-4.6052828 9.7325783 0.89898914 5.4398967e-39
-4.596734 9.6447105 0.90434039 5.624288e-39
-4.3926244 9.687871 0.91798693 5.9012294e-39
-4.6132965 9.8985434 0.91030455 5.1633126e-39
-4.5984826 9.8623772 0.87105584 5.3473465e-39
-4.3893619 9.8040838 0.95147341 5.9930663e-39
-4.6211524 10.016837 0.94228095 4.8870887e-39
-4.5924296 10.079731 0.91336972 5.3473409e-39
-4.6292453 10.301749 0.9035123 5.0711142e-39
-4.5940905 10.236997 0.94739896 5.1633084e-39
-4.6404219 10.487574 0.92941004 4.9789227e-39
-4.5900855 10.493639 0.90445292 5.2555026e-39
-4.6400084 10.70775 0.89823997 5.346985e-39
-4.5956316 10.629517 0.95386702 5.2555026e-39
-4.6513319 10.900914 0.91123372 5.5317336e-39
-4.5965462 10.835279 0.93336427 5.439538e-39
-4.6627455 11.069069 0.93987733 5.7161291e-39
-4.594326 11.070702 0.91417694 5.7161248e-39
-4.6555562 11.30617 0.89867914 6.0852661e-39
-4.5974698 11.225318 0.95107859 5.8086806e-39
-4.6678228 11.502341 0.9246816 6.3614957e-39
-4.5946231 11.437285 0.9224937 6.0852675e-39
-4.8043919 11.677228 0.93722272 1.4107005e-38
-4.6773162 11.623493 0.94939262 6.4536955e-39
-4.5976391 11.633851 0.9291451 6.1778219e-39
-4.8082104 11.832767 0.96393859 1.4474001e-38
-4.6857285 11.896772 0.90862584 6.45405e-39
-4.5973392 11.834414 0.8993991 6.3622131e-39
-4.6973381 12.045226 0.93619198 6.3614985e-39
-4.8103995 12.362117 0.87502825 1.5488876e-38
-4.6980696 12.305608 0.90052348 6.0849102e-39
-4.8060641 12.573784 0.86224151 1.5580711e-38
-4.7080522 12.417563 0.92694688 5.9005203e-39
-4.8049555 12.77037 0.9276824 1.5673258e-38
-4.7185583 12.709769 0.90022051 5.5320965e-39
-4.8023834 12.95734 0.82948118 1.4658745e-38
-4.7259855 12.807226 0.96198714 5.3480654e-39
-4.8015771 13.152153 0.885961 1.4473273e-38
-4.7286224 13.083323 0.90140235 5.0711212e-39
-4.8028312 13.342537 0.85156965 1.3919377e-38
-4.7389965 13.301476 0.89895529 5.1629539e-39
-4.802546 13.572324 0.87953228 1.1524087e-38
-4.7495322 13.472832 0.90447152 5.070761e-39
-4.8070216 13.750705 0.88408184 1.1524088e-38
-4.777092 13.704529 0.90177268 5.3477011e-39
-4.8012042 13.959002 0.90327424 6.085629e-39
-4.7872686 13.902686 0.89722729 5.5320965e-39
-4.8021045 14.055351 0.89931732 5.7168479e-39
-4.7945056 14.035717 0.90785801 5.6246537e-39
-4.8345165 14.300348 0.89981592 9.4961485e-39
-4.8457508 14.479333 0.90284127 9.7723794e-39
-4.8734636 14.694606 0.90266728 1.3091063e-38
-4.847425 14.904855 0.94690126 1.6500858e-38
-4.8495522 15.168954 0.98992425 1.6317172e-38
-4.8643422 15.313664 0.96603757 1.6132429e-38
-4.8755751 15.502651 0.93410051 1.6131713e-38
-4.8804398 15.705903 0.90381503 1.576293e-38
-5.022727 15.830109 0.83959872 1.5490658e-38
-4.8790359 15.808795 0.84067804 1.4750226e-38
-4.2715192 2.3773162 1.0893034 4.423221e-39
-4.4598789 2.5709844 1.1065652 1.2350232e-38
-4.2903218 2.5154827 1.0962098 8.2954431e-39
-4.4692764 2.7616608 1.1727433 1.2068946e-38
-4.3029342 2.604569 1.1792594 8.8464463e-39
-4.4693837 2.9024978 1.170903 1.5205401e-38
-4.4754934 3.1023674 1.1662713 1.4835164e-38
-4.4807725 3.302428 1.1609983 1.4281269e-38
-4.4819913 3.4120884 1.157578 1.2255867e-38
-4.3599787 3.9573627 1.1030202 5.6195782e-39
-4.3092508 4.1789203 1.0680959 6.7248467e-39
-4.4592471 4.344512 1.1455723 1.8417518e-39
-4.3803444 4.3759484 1.1026028 2.3960088e-39
-4.4010735 4.5535865 1.098442 1.3549166e-38
-4.3928432 4.4967227 1.0964292 1.096913e-38
-4.4030809 4.6227512 1.1078627 1.3549889e-38
-4.3957806 4.6176505 1.1261384 1.354953e-38
-4.4033275 4.9628115 1.0655931 1.1431532e-38
-4.3919191 4.8988576 1.1035776 1.1155301e-38
-4.4078374 5.11024 1.0957454 1.1800315e-38
-4.3976607 5.0377703 1.1276685 1.1523728e-38
-4.4219804 5.3075538 1.1022482 1.2445324e-38
-4.3954706 5.2520323 1.0338035 1.0324464e-38
-4.4364519 5.5038314 1.0988474 1.3090693e-38
-4.3975453 5.4781013 1.0822661 1.0970198e-38
-4.4452858 5.7044663 1.1003714 1.3550956e-38
-4.3877206 5.6966987 1.0952452 1.1431895e-38
-4.4516163 5.8681545 1.1035149 1.355096e-38
-4.3949771 5.8919339 1.1028826 1.180032e-38
-4.4649935 6.0972128 1.0991977 1.1891433e-38
-4.3973675 6.0350986 1.1177827 1.1892875e-38
-4.4744906 6.303266 1.0986882 1.1522652e-38
-4.3967156 6.2715859 1.1024154 1.1708483e-38
-4.4807138 6.4701977 1.1049811 1.1061676e-38
-4.3965197 6.4358206 1.1174622 1.1708483e-38
-4.4841866 6.7073255 1.1013752 1.0508498e-38
-4.3965292 6.7089853 1.0771205 1.0511742e-38
-4.4966335 6.907021 1.097811 9.8631303e-39
-4.3969703 6.8678856 1.0993947 1.0511385e-38
-4.5039854 7.0649729 1.1043561 9.4943506e-39
-4.3938813 7.0701599 1.0784187 6.2700175e-39
-4.4886866 7.3089771 1.1003884 9.4947051e-39
-4.3925109 7.2277832 1.1116834 6.1778191e-39
-4.5032754 7.5044298 1.0998182 9.4943464e-39
-4.3851986 7.4775887 1.0896037 5.7171982e-39
-4.51158 7.6757379 1.1031994 9.5865448e-39
-4.3945546 7.6436706 1.0771662 5.4406128e-39
-4.601552 7.9394369 1.1321929 1.3921892e-38
-4.5170884 7.9067526 1.0995635 1.0231551e-38
-4.3934779 7.8268418 1.0915246 5.3480584e-39
-4.6034775 8.1789207 1.1589955 1.4566541e-38
-4.529665 8.1044998 1.0982597 1.0784726e-38
-4.3941393 8.1060085 1.1275018 5.3476983e-39
-4.6066074 8.3625689 1.1114482 1.5027523e-38
-4.5354705 8.2231636 1.1100209 1.1061316e-38
-4.387394 8.2833958 1.0937085 5.2562201e-39
-4.6043539 8.5666637 1.0885606 1.5856205e-38
-4.5430155 8.5092993 1.0999897 1.161449e-38
-4.3808904 8.5416288 1.0804826 5.4402526e-39
-4.6104007 8.7122316 1.1067863 1.6133508e-38
-4.5509019 8.6075468 1.16091 1.2074751e-38
-4.3923059 8.670146 1.081618 5.5328084e-39
-4.6024203 8.9618559 1.1325159 1.6870361e-38
-4.5731983 8.889164 1.1035378 1.1983272e-38
-4.3902326 8.8947611 1.1211839 5.9015909e-39
-4.600657 9.1875153 1.0625648 1.5763279e-38
-4.5660734 9.1037397 1.099828 1.1339701e-38
-4.388742 9.0893507 1.0502393 6.0852633e-39
-4.6021724 9.319313 1.063002 1.567037e-38
-4.5767522 9.3052416 1.0992627 1.0970921e-38
-4.3778353 9.3020887 1.1953384 6.4540458e-39
-4.6027322 9.5933666 1.1030053 6.7302754e-39
-4.5834594 9.4261875 1.1095667 1.0693977e-38
-4.6068859 9.7305231 1.0934244 5.6239292e-39
-4.5976014 9.6534586 1.1125202 5.8086778e-39
-4.6160722 9.9041338 1.098864 5.2551509e-39
-4.5947876 9.860774 1.1092997 5.5320895e-39
-4.6220284 10.029523 1.1086206 4.9789241e-39
-4.5968347 10.038609 1.1657003 5.3476983e-39
-4.6300111 10.304543 1.1002843 4.9789199e-39
-4.596848 10.231847 1.1318815 5.1633084e-39
-4.6413479 10.506382 1.0999641 4.8870872e-39
-4.5854845 10.503634 1.1034979 5.1633084e-39
-4.6468077 10.606618 1.1654123 4.9789284e-39
-4.5931811 10.650592 1.1052064 5.255504e-39
-4.6522517 10.904482 1.1003555 5.5317364e-39
-4.5978627 10.859309 1.0917747 5.4398953e-39
-4.6630068 11.088956 1.1024156 5.8086876e-39
-4.5925722 11.075673 1.0996468 5.7168409e-39
-4.6529064 11.307007 1.0998286 6.4536899e-39
-4.5977635 11.235613 1.1332786 6.0852661e-39
-4.6688452 11.506659 1.10004 6.8224752e-39
-4.5945787 11.434779 1.0479723 6.085985e-39
-4.8077383 11.754709 1.1035926 1.4659821e-38
-4.6761389 11.63692 1.1061023 6.9150324e-39
-4.5938807 11.63525 1.1187412 6.455129e-39
-4.8183537 11.892057 1.1087005 1.4567627e-38
-4.6874142 11.90272 1.100796 7.0990621e-39
-4.5947151 11.855507 1.1417887 6.7317159e-39
-4.6976728 12.061668 1.1023684 7.0068693e-39
-4.8100224 12.329473 1.1171682 1.6134244e-38
-4.69946 12.301773 1.1003072 6.6384427e-39
-4.8031321 12.580769 1.0892941 1.6964357e-38
-4.7066388 12.429524 1.1065438 6.3614999e-39
-4.8029656 12.752662 1.1199176 1.6503735e-38
-4.7196617 12.708447 1.100754 5.7164892e-39
-4.8023171 12.958474 1.0332944 1.5120438e-38
-4.7262321 12.81878 1.1118524 5.5317392e-39
-4.8018641 13.186406 1.0984399 1.428996e-38
-4.7298102 13.096385 1.1019197 5.0711198e-39
-4.8009572 13.371459 1.1059881 1.3827904e-38
-4.7389741 13.302767 1.1008905 5.071117e-39
-4.8016706 13.53902 1.0641403 1.3643513e-38
-4.7505794 13.492293 1.1025566 5.070761e-39
-4.8025856 13.765085 1.0678276 1.1340057e-38
-4.7758837 13.70246 1.1023455 5.3476997e-39
-4.802299 13.970812 1.0906329 7.2838135e-39
-4.7887053 13.907641 1.1006318 5.6242894e-39
-4.8022704 14.079374 1.1062273 5.9930775e-39
-4.795702 14.051105 1.1015552 5.8090435e-39
-4.8349028 14.306902 1.0989046 9.8649324e-39
-4.8473115 14.496626 1.1017711 1.0325555e-38
-4.8748493 14.703371 1.1008087 1.3828627e-38
-4.8788424 14.80646 1.1542926 1.4289245e-38
-4.8543191 15.161919 1.0968868 1.6778514e-38
-4.8616281 15.296363 1.1007466 1.6685603e-38
-4.868207 15.496827 1.0988446 1.6592692e-38
-4.8745489 15.699931 1.0981849 1.6131713e-38
-4.8753414 15.812409 1.1508602 1.4104138e-38
-4.2634954 2.3864737 1.2803707 3.7803669e-39
-4.4590039 2.5693796 1.2965999 1.4560758e-38
-4.2932563 2.5687156 1.3058671 8.9408097e-39
-4.4640517 2.7636278 1.2981194 1.262248e-38
-4.3068137 2.6188128 1.2999276 7.0947251e-39
-4.4660974 2.9000325 1.2995402 1.5851134e-38
-4.4737234 3.099771 1.2991118 1.5573452e-38
-4.4774566 3.2998853 1.299288 1.5019553e-38
-4.4785161 3.4127023 1.2973151 1.198e-38
-4.4517288 4.3374057 1.2952814 1.6577207e-39
-4.3810396 4.3738418 1.2910982 1.9353894e-39
-4.4015088 4.5261559 1.3026298 1.2168038e-38
-4.3937521 4.4975224 1.3019893 1.050923e-38
-4.4023561 4.6578584 1.3124703 1.3365499e-38
-4.3962197 4.6395993 1.3056601 1.3181825e-38
-4.4018064 4.9659271 1.3510333 1.1063469e-38
-4.3894076 4.8991561 1.2997243 1.0787601e-38
-4.4057803 5.1434441 1.2976581 1.1893231e-38
-4.3954043 5.0619164 1.3000487 1.1432252e-38
-4.414855 5.3063836 1.2983702 1.2630796e-38
-4.3956337 5.2362733 1.284217 1.0233708e-38
-4.4316163 5.4976625 1.3003159 1.3736783e-38
-4.3970356 5.4446645 1.3168659 1.0787606e-38
-4.4442945 5.7024179 1.3004284 1.4381436e-38
-4.387279 5.7056899 1.2997984 1.1709921e-38
-4.453063 5.8853979 1.3037479 1.4473995e-38
-4.3938351 5.893497 1.3054928 1.2170542e-38
-4.4598026 6.1030021 1.2981957 1.272191e-38
-4.3987117 6.0283318 1.2343316 1.2262017e-38
-4.473505 6.3034835 1.3014357 1.2260215e-38
-4.391747 6.2876787 1.2904323 1.2169464e-38
-4.4820194 6.4877238 1.3027287 1.1522654e-38
-4.3916955 6.4294462 1.2229738 1.1985073e-38
-4.4803057 6.7091675 1.2991849 1.0785803e-38
-4.395143 6.6867561 1.3018931 1.0973082e-38
-4.4960942 6.9049864 1.3007468 9.9556847e-39
-4.398396 6.8695922 1.2851489 1.0512102e-38
-4.50494 7.0803409 1.3031749 9.4025137e-39
-4.3961425 7.0632086 1.2781478 9.682339e-39
-4.4832888 7.3055639 1.2996045 9.4032284e-39
-4.3873467 7.2965269 1.2799379 5.8093995e-39
-4.5000997 7.5042725 1.3007625 9.310674e-39
-4.3819427 7.5120287 1.3075738 5.2562257e-39
-4.6006284 7.779593 1.2327207 1.4106642e-38
-4.5116768 7.6926842 1.3025703 9.4947093e-39
-4.3864384 7.6789536 1.3230176 4.8878019e-39
-4.6028943 7.9391747 1.2995933 1.4106284e-38
-4.5137334 7.9099183 1.2996199 1.0324464e-38
-4.3900895 7.8852139 1.3629317 4.3349897e-39
-4.6042347 8.1549349 1.2971005 1.4567261e-38
-4.5292082 8.1061993 1.3001431 1.1153509e-38
-4.3953781 8.0852404 1.3571638 4.1502383e-39
-4.6037827 8.364069 1.3012431 1.5764728e-38
-4.5365558 8.238616 1.3072795 1.1614491e-38
-4.3882318 8.2328396 1.3615376 4.1502411e-39
-4.604044 8.5202599 1.3401877 1.6594846e-38
-4.5443444 8.505517 1.299637 1.2443892e-38
-4.3942313 8.4589005 1.2921296 4.7952475e-39
-4.6158628 8.7215014 1.2886457 1.6871432e-38
-4.550704 8.6188564 1.3174108 1.272048e-38
-4.3915839 8.6431437 1.2539216 5.3491388e-39
-4.601871 8.9666843 1.2579966 1.7424257e-38
-4.5764832 8.9034653 1.3023236 1.2904871e-38
-4.3878946 8.9178324 1.2798861 5.4413344e-39
-4.6014385 9.1394806 1.2715638 1.7238062e-38
-4.5764956 9.0122538 1.3648682 1.3089982e-38
-4.3934016 9.0739412 1.3416084 5.6257257e-39
-4.6018524 9.3753405 1.2600358 1.6499416e-38
-4.5795913 9.3004951 1.2999978 1.1708846e-38
-4.3856306 9.3044643 1.2533312 6.2700147e-39
-4.6187916 9.5916262 1.2951993 1.5025718e-38
-4.586791 9.4414673 1.3050028 1.1247511e-38
-4.3862824 9.4097424 1.2317903 6.4547647e-39
-4.606451 9.7538328 1.2953351 5.808682e-39
-4.5953603 9.6652908 1.3033054 6.1774631e-39
-4.6166477 9.9053822 1.2994629 5.3477053e-39
-4.5929174 9.8912783 1.3039854 5.7168409e-39
-4.6237097 10.045845 1.3070071 5.0707638e-39
-4.5983667 10.029881 1.3684063 5.4402554e-39
-4.6260891 10.30366 1.3001573 4.9792787e-39
-4.5962334 10.250599 1.2975593 5.255504e-39
-4.6404481 10.505195 1.2977219 4.978564e-39
-4.5843525 10.503583 1.2986846 5.1636671e-39
-4.6461573 10.61902 1.3227137 4.8867327e-39
-4.593338 10.672843 1.3059514 5.2558628e-39
-4.8039713 10.843132 1.3819916 1.6226784e-38
-4.6475024 10.903903 1.2996384 5.5324553e-39
-4.597105 10.851114 1.3189698 5.5324539e-39
-4.6624913 11.102726 1.3025752 6.0852731e-39
-4.5929904 11.089706 1.3016189 5.9015937e-39
-4.6669202 11.207159 1.377396 6.4540598e-39
-4.5962701 11.223041 1.3501898 6.2710965e-39
-4.8025541 11.583032 1.2214154 1.4474711e-38
-4.6655622 11.503332 1.2994168 7.2838121e-39
-4.5865021 11.500525 1.2924523 6.6398776e-39
-4.675468 11.65043 1.3060389 7.4682076e-39
-4.5939403 11.662875 1.3190106 7.1004998e-39
-4.805799 11.912566 1.3512729 1.4659823e-38
-4.684238 11.904266 1.2999771 7.6529547e-39
-4.5934014 11.84638 1.3019172 7.1930542e-39
-4.8215084 12.144388 1.324851 1.5028604e-38
-4.6978168 12.074144 1.3034952 7.5600431e-39
-4.8086352 12.297346 1.2600932 1.6134962e-38
-4.6991653 12.304217 1.3006052 7.1912577e-39
-4.8118653 12.490878 1.328567 1.7333504e-38
-4.7077446 12.445954 1.3048778 6.7306411e-39
-4.8048463 12.740533 1.3008323 1.7241303e-38
-4.7200379 12.703305 1.299745 5.9934334e-39
-4.8062649 12.94884 1.3231323 1.6227148e-38
-4.7266731 12.832109 1.3088453 5.5324581e-39
-4.8046484 13.156936 1.3606975 1.4936407e-38
-4.729002 13.106669 1.2999415 5.0711212e-39
-4.8007827 13.382132 1.2772474 1.3550957e-38
-4.7356644 13.209692 1.3335421 4.7952532e-39
-4.801528 13.55688 1.2875212 1.373535e-38
-4.7506943 13.503761 1.3013803 4.9792857e-39
-4.8025546 13.758489 1.3112018 1.1340774e-38
-4.7580342 13.607221 1.3663063 4.9796444e-39
-4.8008604 13.989301 1.3047564 6.4551318e-39
-4.7879777 13.904544 1.2982775 5.625011e-39
-4.8024044 14.096638 1.3108299 6.2700231e-39
-4.7970681 14.056108 1.3000506 5.9937963e-39
-4.8336458 14.302448 1.2989962 1.0326269e-38
-4.8469133 14.507244 1.3014848 1.0971283e-38
-4.8516459 14.613245 1.3843342 1.1617017e-38
-4.8795767 14.81763 1.3142823 1.4750946e-38
-4.8542681 15.164406 1.3001504 1.7607922e-38
-4.8568091 15.292732 1.2993762 1.7330976e-38
-4.8639216 15.49415 1.2989749 1.6869641e-38
-4.8715305 15.702498 1.3009946 1.6131714e-38
-4.8686738 15.803572 1.2893044 1.3458047e-38
-5.0293121 16.05275 1.2149251 1.6873597e-38
-4.234798 2.3430488 1.5041054 1.5676802e-39
-4.4530916 2.5701098 1.4980091 1.41927e-38
-4.294302 2.5687239 1.5029162 8.0188562e-39
-4.4583001 2.7666953 1.4984968 1.4468568e-38
-4.3022213 2.623178 1.5058917 7.3720392e-39
-4.4632215 2.8990273 1.4994498 1.6867459e-38
-4.4677391 3.0998671 1.4996008 1.6866722e-38
-4.4717054 3.2999303 1.4996097 1.6311742e-38
-4.4729652 3.4116714 1.4995669 1.3455851e-38
-4.4455247 4.3309784 1.4997052 1.3818526e-39
-4.3764954 4.3901396 1.4891728 1.1981859e-39
-4.4017582 4.570653 1.5087061 1.2813046e-38
-4.3922844 4.4875717 1.5001553 9.4032424e-39
-4.4025497 4.6654658 1.5050679 1.3089993e-38
-4.3978267 4.6572924 1.5055219 1.2997799e-38
-4.4022665 4.979322 1.4355946 1.087944e-38
-4.3875842 4.9074039 1.503844 1.0695409e-38
-4.4041705 5.1494823 1.5083038 1.2077985e-38
-4.3954892 5.0769 1.4947767 1.152517e-38
-4.4122629 5.307013 1.4989122 1.3092496e-38
-4.3975039 5.2192307 1.5566318 1.1525171e-38
-4.4294438 5.502007 1.5009446 1.4567624e-38
-4.3964558 5.4915185 1.4803399 1.1709205e-38
-4.4435143 5.7039123 1.4977295 1.5488864e-38
-4.394732 5.649859 1.5316406 1.2724077e-38
-4.4529357 5.9035769 1.502053 1.5765097e-38
-4.3915901 5.8787842 1.5013489 1.3277253e-38
-4.4570956 6.008873 1.568771 1.6317909e-38
-4.3984871 6.0740075 1.5294356 1.4013739e-38
-4.4715023 6.3035316 1.4997363 1.3182892e-38
-4.3958783 6.2901802 1.5149012 1.3369448e-38
-4.482233 6.5014567 1.5012614 1.1984353e-38
-4.3954344 6.457252 1.5362439 1.3277251e-38
-4.4863639 6.6061249 1.5608987 1.1615216e-38
-4.390039 6.6759949 1.4937726 1.1895043e-38
-4.4943876 6.901567 1.4994849 9.9567637e-39
-4.3921666 6.8575459 1.4914274 9.774899e-39
-4.5051794 7.0975361 1.5038989 9.310681e-39
-4.3476229 7.1143765 1.5060951 6.6402419e-39
-4.4793482 7.3044615 1.4994348 9.2191986e-39
-4.3703957 7.3258672 1.5090916 5.7179241e-39
-4.4968357 7.5040927 1.4997778 9.2191986e-39
-4.3806233 7.5009193 1.4944434 4.9803591e-39
-4.6010637 7.7594171 1.5766754 1.4290676e-38
-4.5100932 7.7065215 1.5000267 9.5872665e-39
-4.3852348 7.6816874 1.4782629 4.6115766e-39
-4.6028214 7.8684406 1.5335628 1.438287e-38
-4.5160379 7.8074522 1.5535482 9.8638576e-39
-4.3943028 7.8706708 1.4825939 4.3349897e-39
-4.6012635 8.1455545 1.5189515 1.5120436e-38
-4.5275187 8.1037998 1.500828 1.1431176e-38
-4.397625 8.1173668 1.494997 4.4264636e-39
-4.6024027 8.3621502 1.533911 1.6226787e-38
-4.5359316 8.2547131 1.5047477 1.2260222e-38
-4.391695 8.2734337 1.5135893 4.2424381e-39
-4.6061649 8.5197105 1.4839569 1.7056545e-38
-4.544095 8.5056953 1.5000875 1.3366929e-38
-4.3742619 8.5200968 1.5908995 4.6112206e-39
-4.6130705 8.6819048 1.5004448 1.7794111e-38
-4.5517373 8.6344023 1.5086076 1.3827552e-38
-4.3894787 8.749506 1.5507853 5.3487857e-39
-4.6013684 8.9660673 1.4477981 1.8715714e-38
-4.5774035 8.9060946 1.5005032 1.4196329e-38
-4.3921547 8.9482517 1.4815774 5.7175682e-39
-4.6024084 9.1347408 1.5314769 1.9083777e-38
-4.5833764 9.0131264 1.5179448 1.4104139e-38
-4.3925152 9.0747166 1.4648151 5.901958e-39
-4.6009269 9.377882 1.5060061 1.7330976e-38
-4.5808711 9.3044815 1.5006361 1.2631164e-38
-4.6035838 9.524827 1.5758036 1.2353863e-38
-4.5895553 9.4570503 1.5040827 1.1801408e-38
-4.6040039 9.7637978 1.4940045 6.0859892e-39
-4.5937519 9.6719942 1.501913 6.6388028e-39
-4.6151333 9.9036837 1.5015517 5.6246537e-39
-4.5920572 9.9003839 1.5011433 5.9019538e-39
-4.6238952 10.062681 1.5040572 5.1633196e-39
-4.5977492 10.031436 1.508121 5.6250096e-39
-4.6225204 10.307646 1.5003291 5.0714757e-39
-4.5961857 10.258922 1.5102251 5.2558656e-39
-4.6386309 10.504854 1.499481 4.8870887e-39
-4.5977807 10.416083 1.5470824 5.1636713e-39
-4.6452522 10.636169 1.5088242 4.8870929e-39
-4.5912786 10.69004 1.4994295 5.255867e-39
-4.8035817 10.91536 1.5940357 1.5858001e-38
-4.6407223 10.905314 1.5032104 5.8090421e-39
-4.590107 10.83255 1.5701258 6.2703818e-39
-4.8078313 11.084141 1.570134 1.5304828e-38
-4.6591415 11.106503 1.500273 6.454057e-39
-4.5964026 11.021571 1.5287195 6.0859836e-39
-4.8082013 11.307927 1.5412091 1.4659458e-38
-4.6658602 11.215857 1.5178969 6.915038e-39
-4.5975471 11.238633 1.4930623 6.6398804e-39
-4.6612806 11.503261 1.4993566 7.9295416e-39
-4.5965905 11.422503 1.500044 7.1008586e-39
-4.8241735 11.773908 1.5494649 1.4752746e-38
-4.6736217 11.667301 1.504512 8.297971e-39
-4.5921288 11.661408 1.4990087 7.6536764e-39
-4.6810331 11.905079 1.4988077 8.574911e-39
-4.591763 11.836299 1.5089443 8.0224589e-39
-4.8082561 12.114018 1.4652308 1.5950211e-38
-4.6965594 12.089898 1.5035826 8.2983284e-39
-4.5989599 12.000978 1.5883197 8.2068502e-39
-4.818152 12.29105 1.4357089 1.6042767e-38
-4.6963305 12.303528 1.499603 7.8369873e-39
-4.8067904 12.525034 1.5299995 1.8532406e-38
-4.7074513 12.460053 1.5044993 7.1916221e-39
-4.804646 12.771297 1.4761075 1.7886315e-38
-4.7195196 12.704621 1.5001363 6.4544144e-39
-4.804234 12.934185 1.4583164 1.6688128e-38
-4.7281895 12.844798 1.5069499 5.7168549e-39
-4.802536 13.135001 1.5320226 1.5029323e-38
-4.7278156 13.106079 1.4999322 5.1636755e-39
-4.8042521 13.385906 1.5041598 1.3922258e-38
-4.7356896 13.226009 1.5125743 4.9789284e-39
-4.8010612 13.544763 1.4991714 1.3459846e-38
-4.7490931 13.503024 1.498946 5.0711226e-39
-4.8034449 13.780546 1.4248508 1.1524808e-38
-4.7567878 13.615462 1.5168911 5.0714841e-39
-4.8022785 13.983933 1.472753 9.4046689e-39
-4.7864652 13.905884 1.502067 5.8097624e-39
-4.8031545 14.115316 1.5017763 6.6391686e-39
-4.7965221 14.055058 1.503686 6.2707448e-39
-4.8315725 14.306969 1.4975324 1.1063836e-38
-4.8464046 14.506582 1.5016104 1.1801406e-38
-4.8538661 14.618918 1.5139847 1.2262027e-38
-4.8809996 14.835373 1.5126759 1.6226078e-38
-4.8503823 15.164203 1.4985695 1.8438046e-38
-4.8529487 15.294212 1.5005987 1.7976709e-38
-4.8613524 15.497333 1.4988114 1.7146948e-38
-5.0088139 15.73071 1.5681739 1.7150192e-38
-4.8683257 15.701211 1.5000484 1.6224995e-38
-4.8725152 15.802858 1.4871572 1.5121897e-38
-4.2316217 2.3005757 1.7162364 1.4747643e-39
-4.4484787 2.5690475 1.6978912 1.4008674e-38
-4.2894068 2.533592 1.6887931 7.0057847e-39
-4.4534769 2.7677751 1.6990656 1.6129902e-38
-4.3057795 2.6177037 1.7062984 7.7411819e-39
-4.4554977 2.8998573 1.6992033 1.9270354e-38
-4.4614248 3.0997651 1.6994423 2.0098283e-38
-4.466886 3.2997601 1.6994884 1.8250755e-38
-4.4692011 3.4121583 1.7007846 1.4101224e-38
-4.3295412 3.960521 1.765393 6.1745498e-39
-4.3236799 4.1200805 1.759902 6.6340874e-39
-4.4453554 4.3228264 1.6979631 1.2892997e-39
-4.3752871 4.3809552 1.7191507 3.6842519e-40
-4.4012876 4.5536036 1.7242749 1.1984723e-38
-4.3912344 4.4869823 1.6965368 8.2972508e-39
-4.4036627 4.699862 1.7070657 1.2813409e-38
-4.3975511 4.6629939 1.6998212 1.253682e-38
-4.4024434 4.990624 1.7734851 1.0603215e-38
-4.3875756 4.9018455 1.6983142 1.023515e-38
-4.404377 5.1580777 1.7187665 1.2078704e-38
-4.3946915 5.0816803 1.6913539 1.1432974e-38
-4.4123173 5.3073487 1.6989019 1.3553474e-38
-4.3970118 5.2283039 1.6455868 1.1525171e-38
-4.4284763 5.5049849 1.6990507 1.5581059e-38
-4.3972769 5.4394755 1.7046956 1.1618091e-38
-4.4430485 5.705296 1.6994448 1.6963996e-38
-4.3957548 5.7084451 1.6897805 1.3738229e-38
-4.4530911 5.9059019 1.6993304 1.7424618e-38
-4.393198 5.8914952 1.7095256 1.466055e-38
-4.4585509 6.021266 1.7140595 1.7516455e-38
-4.3990812 6.04702 1.6444476 1.4935339e-38
-4.4725537 6.3041353 1.6983998 1.4289241e-38
-4.3977957 6.2243299 1.6603707 1.4751665e-38
-4.4825206 6.5046663 1.700552 1.2813756e-38
-4.3976655 6.4648819 1.6580521 1.4106297e-38
-4.4887505 6.6173244 1.7126846 1.1983998e-38
-4.3925042 6.7042336 1.6768564 1.3002108e-38
-4.4942789 6.9017749 1.6998217 1.0417383e-38
-4.3946037 6.8606467 1.6834261 1.1434422e-38
-4.5057893 7.1073222 1.6987772 9.6791034e-39
-4.3931408 7.1112123 1.7152431 7.1926983e-39
-4.5116267 7.211659 1.7404035 9.6791048e-39
-4.3928566 7.3148775 1.7427647 6.2707434e-39
-4.4958167 7.5043449 1.699816 9.587621e-39
-4.3879199 7.5176306 1.678648 5.072196e-39
-4.5093927 7.7054939 1.6994479 1.0047885e-38
-4.3916197 7.6930995 1.6882128 4.6112164e-39
-4.6029282 7.9250793 1.6561563 1.4475068e-38
-4.5160375 7.8215833 1.7112535 1.0324477e-38
-4.3912654 7.8952808 1.6794952 4.3349897e-39
-4.6028152 8.1448574 1.6650863 1.5212635e-38
-4.5264883 8.103301 1.6995412 1.2168383e-38
-4.3943286 8.0654631 1.7818794 4.0576881e-39
-4.6042714 8.3652639 1.6434219 1.6411177e-38
-4.5371261 8.2722187 1.7048485 1.3089986e-38
-4.3906341 8.2727861 1.7102952 4.3349897e-39
-4.6050978 8.5599508 1.6921799 1.8255092e-38
-4.5449362 8.5054064 1.6994739 1.4749504e-38
-4.3897109 8.4332542 1.737304 4.3349925e-39
-4.611259 8.7106609 1.6920427 1.9084494e-38
-4.5536156 8.6504869 1.7053437 1.5394519e-38
-4.3835783 8.6962385 1.6629729 5.1647545e-39
-4.6035972 8.9150381 1.6789141 2.0099006e-38
-4.5789042 8.9027367 1.7009345 1.594769e-38
-4.3896804 8.9506731 1.6572599 5.9948753e-39
-4.6019683 9.1642666 1.7107607 2.0558909e-38
-4.5856414 9.0266304 1.7036929 1.5671106e-38
-4.3915973 9.117095 1.7056079 6.5480505e-39
-4.6007881 9.3875961 1.6587766 1.8161104e-38
-4.5819306 9.303668 1.6994565 1.40141e-38
-4.3982453 9.2155018 1.7429682 7.1934199e-39
-4.6022964 9.5438395 1.7425741 1.2630807e-38
-4.5919671 9.4750633 1.7033976 1.263117e-38
-4.6030273 9.7589512 1.7016119 6.8228353e-39
-4.5950761 9.6730976 1.6962469 7.1919766e-39
-4.6150184 9.9031887 1.7004516 5.9934362e-39
-4.5916567 9.9034786 1.7007735 6.4551276e-39
-4.6254935 10.081775 1.7026756 5.1636797e-39
-4.597424 10.029976 1.6907445 6.0856262e-39
-4.6217933 10.308392 1.6976377 5.2558684e-39
-4.5933094 10.269671 1.7033958 5.5324511e-39
-4.6378312 10.506121 1.7007182 5.0711198e-39
-4.5794315 10.503424 1.6998832 5.4402554e-39
-4.6460848 10.654087 1.7052089 4.9792885e-39
-4.5890079 10.694727 1.7080971 5.6250054e-39
-4.6380305 10.904066 1.6958649 6.4544116e-39
-4.5906301 10.829813 1.6788461 6.1785449e-39
-4.8093367 11.071771 1.6584527 1.5397026e-38
-4.6578312 11.104818 1.6995387 6.8228395e-39
-4.5976787 11.022202 1.7368277 6.7313558e-39
-4.6653113 11.232832 1.7086415 7.2838219e-39
-4.5949092 11.234684 1.7119735 7.1923339e-39
-4.6589999 11.504507 1.6991498 8.6671081e-39
-4.5812774 11.497246 1.6995511 7.6540337e-39
-4.8077769 11.715766 1.7802014 1.4382878e-38
-4.6731553 11.683716 1.7037723 9.3121244e-39
-4.593647 11.693287 1.6970285 8.6678269e-39
-4.8059812 11.910136 1.7386757 1.4383248e-38
-4.6804819 11.908378 1.6989499 9.8656513e-39
-4.5966296 11.816424 1.7556877 9.5897846e-39
-4.8098869 12.135414 1.7045277 1.5950568e-38
-4.6969509 12.105154 1.7013572 9.3121244e-39
-4.5995436 12.095228 1.7069148 8.9451341e-39
-4.8047457 12.326014 1.7136445 1.8624245e-38
-4.702539 12.205983 1.7630838 9.21957e-39
-4.8118601 12.511409 1.6287597 1.853205e-38
-4.7079868 12.477035 1.7027003 7.6526002e-39
-4.8057523 12.720662 1.712911 2.0191926e-38
-4.7200265 12.70612 1.6989765 6.8231983e-39
-4.8118625 12.94076 1.6482644 1.7610807e-38
-4.7296171 12.861754 1.7056515 5.9930817e-39
-4.8042936 13.162541 1.6736525 1.5490304e-38
-4.7263193 13.10622 1.7006623 5.4399037e-39
-4.802597 13.385971 1.7310913 1.3460209e-38
-4.7355146 13.241579 1.7054496 5.0714841e-39
-4.8004322 13.560203 1.7768804 1.2999933e-38
-4.7475915 13.504961 1.7011265 5.2558726e-39
-4.8018179 13.749464 1.723767 1.2354922e-38
-4.7562289 13.635847 1.7058566 5.3477137e-39
-4.8021526 13.975618 1.7338352 1.0141877e-38
-4.7854424 13.903627 1.7020094 6.1781862e-39
-4.8038974 14.1471 1.7077802 7.099788e-39
-4.7961636 14.059098 1.6959927 6.6395273e-39
-4.8312101 14.303511 1.6978267 1.1709567e-38
-4.8456244 14.503356 1.7013297 1.2907753e-38
-4.8544707 14.631974 1.7065077 1.3552767e-38
-4.880928 14.850305 1.705898 1.7977796e-38
-4.8473401 15.161896 1.701352 1.9729147e-38
-4.8503189 15.296509 1.6994141 1.8806834e-38
-4.858367 15.497499 1.6982392 1.7515377e-38
-4.8654604 15.697816 1.7011695 1.6224637e-38
-5.0056787 15.878719 1.7842466 1.9639111e-38
-4.8660712 15.822954 1.6725767 1.6041674e-38
-4.233696 2.3342628 1.907792 1.3829274e-39
-4.4429455 2.5692871 1.8975438 1.3916484e-38
-4.2950878 2.5601122 1.9140077 7.0057819e-39
-4.4500093 2.7687781 1.8910474 1.474805e-38
-4.3074112 2.6220531 1.8452884 7.3724022e-39
-4.4512591 2.8991642 1.8861023 1.6591968e-38
-4.4573007 3.0984516 1.880796 2.0189041e-38
-4.4627237 3.2988942 1.8761376 2.0926963e-38
-4.4640198 3.4119604 1.8736285 1.4746597e-38
-4.3613214 3.7661698 1.9991051 6.3589369e-39
-4.4482718 4.3152509 1.9019815 1.2896598e-39
-4.3753114 4.3859811 1.9146432 1.847542e-40
-4.4017878 4.5646682 1.8788446 1.1799253e-38
-4.3911753 4.4919319 1.901342 7.7440798e-39
-4.403295 4.7196808 1.9002465 1.253646e-38
-4.3976574 4.6788263 1.9057679 1.2167678e-38
-4.4037104 4.8148379 1.9607458 1.2812686e-38
-4.397274 4.8204489 1.9606512 1.2444619e-38
-4.4047937 5.135498 1.9070392 1.1709561e-38
-4.3952665 5.0614691 1.9004828 1.0879799e-38
-4.4146223 5.3024955 1.8968067 1.3553475e-38
-4.3990293 5.2503033 1.9142406 1.0234432e-38
-4.4303823 5.504632 1.8987987 1.622679e-38
-4.3959584 5.4774919 1.8624455 1.1710288e-38
-4.4452243 5.7029572 1.9020306 1.8438766e-38
-4.389699 5.6698413 1.9423205 1.3553482e-38
-4.453711 5.9055634 1.8987345 1.9268169e-38
-4.3932538 5.8921604 1.898466 1.5766896e-38
-4.4590273 6.0441875 1.9097948 1.9175257e-38
-4.3965015 6.0550361 1.8890775 1.6595938e-38
-4.4735813 6.3031535 1.8994253 1.539487e-38
-4.3985925 6.2895312 1.9526802 1.6687768e-38
-4.4828801 6.5060616 1.8987714 1.3642436e-38
-4.3965874 6.474824 1.9477009 1.5949847e-38
-4.4884939 6.6386986 1.9108639 1.2351702e-38
-4.3930469 6.6721349 1.8767552 1.4108461e-38
-4.494699 6.9019351 1.8990165 1.1061674e-38
-4.3910809 6.8886528 1.9073534 8.6681913e-39
-4.5057712 7.1049151 1.8992716 1.0323753e-38
-4.3916993 7.0875082 1.8780631 7.469288e-39
-4.5116134 7.2290082 1.911543 1.0139365e-38
-4.3852758 7.3185949 1.8548582 6.9153911e-39
-4.4966202 7.5079746 1.8993217 1.0416664e-38
-4.391242 7.4393339 1.8857279 6.1778275e-39
-4.5088367 7.7073722 1.8992635 1.1337904e-38
-4.392992 7.743835 1.9247683 4.7952532e-39
-4.6035047 7.9800568 1.8868361 1.5765453e-38
-4.5161047 7.8393655 1.9082323 1.2259142e-38
-4.3890481 7.9470563 1.9188836 4.5183047e-39
-4.602963 8.1038189 1.8582333 1.5488866e-38
-4.5272536 8.1040697 1.9000739 1.3919018e-38
-4.3898849 8.1333055 1.8977566 4.1505998e-39
-4.6027355 8.3469582 1.8605952 1.8438767e-38
-4.5373559 8.291297 1.9029415 1.4471838e-38
-4.3940773 8.2435474 1.8994093 4.1506012e-39
-4.6021924 8.5338602 1.8986093 2.0651821e-38
-4.5466628 8.5028715 1.9010203 1.6776728e-38
-4.3877339 8.4401445 1.8777014 4.2427982e-39
-4.6090817 8.7356424 1.8942679 2.1850364e-38
-4.5549607 8.6688499 1.9058053 1.7145517e-38
-4.3674345 8.7302208 1.8525985 4.4268336e-39
-4.6048813 8.9388294 1.9139694 2.3233299e-38
-4.5814061 8.9061613 1.898649 1.806783e-38
-4.359694 8.8897886 1.8279201 4.611585e-39
-4.6014247 9.1812172 1.8675234 2.2955993e-38
-4.5878935 9.0469036 1.9077493 1.7238072e-38
-4.3945479 9.0983944 1.9098519 6.9164757e-39
-4.6009989 9.363884 1.9455253 2.1018804e-38
-4.5842609 9.3017902 1.8995717 1.5581067e-38
-4.3855743 9.220437 1.8115792 6.6402476e-39
-4.6023617 9.5632334 1.9320393 1.2077279e-38
-4.5941591 9.4895353 1.9008688 1.3275819e-38
-4.604229 9.7388239 1.9138829 7.4682034e-39
-4.5960217 9.6620588 1.8808343 8.2057698e-39
-4.6159263 9.9027033 1.8987174 6.2693042e-39
-4.5926743 9.8965187 1.8959377 7.9291773e-39
-4.6262097 10.101456 1.9037689 5.0711254e-39
-4.597321 10.022767 1.8796684 7.3760035e-39
-4.6225028 10.305623 1.8990113 5.4398995e-39
-4.5922318 10.277836 1.9026381 7.0068609e-39
-4.637217 10.502338 1.8995668 5.1633168e-39
-4.576045 10.504843 1.9015099 7.3752804e-39
-4.6461291 10.672565 1.9049807 5.7164934e-39
-4.5896349 10.703384 1.9024532 6.7306341e-39
-4.6417785 10.907325 1.8983111 6.3622173e-39
-4.5975289 10.840495 1.917428 6.4540486e-39
-4.6561027 11.104009 1.8994807 7.6518785e-39
-4.594779 11.05722 1.9258173 7.4678432e-39
-4.6645522 11.250497 1.9066385 8.1128609e-39
-4.5972891 11.258289 1.8954824 8.2986815e-39
-4.6577482 11.505936 1.8995005 9.9567665e-39
-4.5940738 11.439249 1.8813355 9.4053892e-39
-4.8071704 11.776906 1.8009374 1.4475077e-38
-4.671988 11.703751 1.9027548 1.0602503e-38
-4.591742 11.68839 1.9035046 1.0327345e-38
-4.6772952 11.812227 1.9525119 1.0970927e-38
-4.5962124 11.825432 1.8523316 1.0604295e-38
-4.800117 12.165716 1.8037001 1.5858011e-38
-4.6954517 12.107468 1.8993362 1.041811e-38
-4.5959773 12.138855 1.9308379 1.2356007e-38
-4.8023758 12.322268 1.8514322 1.9176699e-38
-4.7031317 12.216141 1.9151422 9.6801866e-39
-4.8078651 12.51587 1.8998364 2.0559993e-38
-4.7077446 12.497887 1.9034466 7.928827e-39
-4.8112497 12.73775 1.8575461 2.1297555e-38
-4.7209415 12.702603 1.8999127 7.0994236e-39
-4.8029022 12.910555 1.8869256 1.8070708e-38
-4.729702 12.879435 1.9057888 5.9930817e-39
-4.8096642 13.079427 1.8895949 1.6503742e-38
-4.7251139 13.104762 1.8991908 5.716492e-39
-4.8013611 13.382401 1.9437833 1.4749869e-38
-4.7341328 13.262627 1.9062777 5.255518e-39
-4.8013968 13.534747 1.9171176 1.4841706e-38
-4.7457204 13.504102 1.8993258 5.5324609e-39
-4.8016143 13.729629 1.9546844 1.5026796e-38
-4.7554812 13.656233 1.9073695 5.8086904e-39
-4.8010945 13.982797 1.9345057 7.099425e-39
-4.7858524 13.900531 1.9007013 6.5466086e-39
-4.803247 14.151416 1.8828365 7.560406e-39
-4.7958179 14.078267 1.907726 7.2838177e-39
-4.8063064 14.218475 1.9203858 8.2976109e-39
-4.7986164 14.20712 1.9543403 8.7585848e-39
-4.844173 14.500961 1.8996917 1.4658392e-38
-4.8529277 14.652685 1.9070027 1.5856576e-38
-4.8804941 14.872029 1.905746 2.0651106e-38
-4.8480091 15.16135 1.899377 2.0835138e-38
-4.8489962 15.291382 1.9001199 1.9451844e-38
-4.8561482 15.491192 1.9012578 1.7423182e-38
-5.0050049 15.610344 1.9509723 1.6965805e-38
-4.8634577 15.687274 1.8975904 1.5763658e-38
-5.0121813 15.868032 1.9223833 1.9823502e-38
-4.8733954 15.818939 1.8311032 1.3647121e-38
-4.2345934 2.3483515 2.0981147 1.0145065e-39
-4.4312019 2.5732176 2.0975981 1.2534633e-38
-4.2898178 2.5255141 2.1029646 4.9778409e-39
-4.4393668 2.6999032 2.0797136 1.3640622e-38
-4.3063383 2.6095924 2.1021485 7.7411903e-39
-4.4405684 2.9001925 2.0778778 1.5853676e-38
-4.3333521 2.9844339 2.1054842 1.4747643e-39
-4.4474859 3.0988808 2.0772419 1.8713544e-38
-4.3423738 3.0974543 2.0973232 1.4747601e-39
-4.4527574 3.2990427 2.0772755 1.8990126e-38
-4.3505564 3.2525496 2.0675483 3.0409984e-39
-4.4512353 3.4144721 2.0779505 1.6867449e-38
-4.3575401 3.5022058 2.048985 5.0689267e-39
-4.3715653 3.7101371 2.0288928 6.3578565e-39
-4.331048 4.0921254 2.0074508 6.0816297e-39
-4.4507027 4.3117919 2.0282474 1.3811366e-39
-4.3799415 4.3873773 2.0791259 4.6133828e-40
-4.4004884 4.5196004 2.0678515 1.0508149e-38
-4.3907766 4.4914951 2.1041028 7.3742155e-39
-4.4025006 4.7444024 2.0667801 1.2167318e-38
-4.3953948 4.696712 2.1111608 1.1706337e-38
-4.4050817 4.8294129 2.1146147 1.2351707e-38
-4.398294 4.8169255 2.1148541 1.2167315e-38
-4.4070988 5.1183591 2.109062 1.0971276e-38
-4.3974495 5.0443902 2.0846012 1.0325908e-38
