# .PCD v0.7 - Point Cloud Data file format
VERSION 0.7
FIELDS x y z rgb
SIZE 4 4 4 4
TYPE F F F F
COUNT 1 1 1 1
WIDTH 344
HEIGHT 1
VIEWPOINT 0 0 0 1 0 0 0
POINTS 344
DATA ascii
8.2597828 -1.022697 0.59139174 7.1923395e-39
8.247756 -0.81558341 0.58343852 8.1124882e-39
8.2601576 -0.69179004 0.54385448 8.1121294e-39
8.2758989 -0.5019787 0.54189324 8.0199324e-39
8.274909 -0.34135267 0.55112624 7.3742099e-39
8.2881308 -0.035499439 0.57386065 9.0340997e-39
8.2637091 0.10174892 0.56316638 8.3887261e-39
8.2719669 0.31034657 0.56293076 8.0199436e-39
8.2661076 0.50085604 0.56750464 7.7429952e-39
8.2662926 0.72509515 0.56709963 7.7433567e-39
8.2642965 0.85729742 0.56430578 6.3607838e-39
8.1958971 -1.0102537 0.76557684 8.2968878e-39
8.2345066 -1.0169375 0.7141065 7.6525974e-39
8.1923895 -0.95596159 0.71534532 6.8217521e-39
8.237215 -0.88726598 0.70871627 7.9277382e-39
8.2683868 -0.6987974 0.69855326 8.2043237e-39
8.2841597 -0.50130922 0.69966143 8.0202925e-39
8.2688026 -0.29326534 0.70685959 8.1128553e-39
8.1945553 -0.1597771 0.74200666 7.6507953e-39
8.2581825 -0.093482912 0.7192778 8.4809189e-39
8.2627335 0.096020862 0.70209306 8.2043307e-39
8.2631235 0.30233571 0.70533979 7.7437112e-39
8.2594185 0.50180757 0.70638907 7.8355495e-39
8.2653637 0.70216495 0.70351386 7.8359097e-39
8.266283 0.86680251 0.70378369 6.9143149e-39
8.2346544 -1.0243093 0.90580583 7.9281025e-39
8.1992569 -0.98841953 0.95601791 6.7299138e-39
8.2471189 -0.90130305 0.89853996 7.9277382e-39
8.2728987 -0.70216519 0.89898676 8.2043251e-39
8.2640247 -0.50053149 0.89831179 8.1124882e-39
8.2490702 -0.28350908 0.90186232 8.2043307e-39
8.2544365 -0.10150228 0.89899892 8.3887233e-39
8.2587299 0.098584644 0.89949441 8.2965263e-39
8.1975088 0.33454201 0.98459411 7.2823674e-39
8.2524366 0.29910892 0.89916807 7.6515142e-39
8.2513533 0.49906582 0.89958858 7.8359097e-39
8.2584152 0.70008093 0.90025282 7.9281039e-39
8.2596521 0.86959231 0.89940923 7.1909018e-39
8.2359457 -1.034467 1.1027133 8.2046894e-39
8.2479248 -0.90291715 1.0991293 8.2043237e-39
8.2608976 -0.70309794 1.0989721 8.4809105e-39
8.1905479 -0.4565157 1.1437354 8.4812707e-39
8.2380276 -0.49895993 1.1000494 8.3890736e-39
8.2372122 -0.28074762 1.101191 8.2043293e-39
8.2521801 -0.10154373 1.0994605 8.5731132e-39
8.1845436 0.19877924 1.1088078 7.5575095e-39
8.2504454 0.099519596 1.0996062 8.2965249e-39
8.1932135 0.3186242 1.1337186 7.2816457e-39
8.2512245 0.29588941 1.0939327 7.7440672e-39
8.1989536 0.49617842 1.1564628 7.3745616e-39
8.2468729 0.49903622 1.0993222 7.9281025e-39
8.2518158 0.69922006 1.0998768 7.9281039e-39
8.2523603 0.86696804 1.0994462 7.3752917e-39
8.227706 -1.0368119 1.3037597 8.6660263e-39
8.2427912 -0.9009667 1.2995504 8.6653032e-39
8.1959505 -0.64298797 1.3577572 8.8504133e-39
8.2400494 -0.70101559 1.2991782 8.7578576e-39
8.1956558 -0.44224519 1.3059464 8.5741866e-39
8.2232428 -0.50735056 1.2987795 8.6660221e-39
8.1968594 -0.3819589 1.2772329 6.6369979e-39
8.2331085 -0.28047746 1.2996423 8.4812763e-39
8.2446527 -0.1007296 1.2999512 8.9418943e-39
8.1958094 0.11344038 1.374657 8.1117693e-39
8.24053 0.098766938 1.2979068 8.6660263e-39
8.1866665 0.30373278 1.300109 7.1898074e-39
8.2598248 0.29724628 1.2999493 8.1132098e-39
8.1958046 0.47629973 1.3156276 7.374563e-39
8.2436047 0.50079685 1.2981186 7.9284612e-39
8.1984081 0.70879555 1.3860255 7.3752847e-39
8.2471848 0.699175 1.2999009 7.9284626e-39
8.2416105 0.86433393 1.2994212 7.6518757e-39
8.1971817 -1.059351 1.4554228 9.3113957e-39
8.2274885 -1.0431288 1.5025296 9.2192015e-39
8.196022 -0.92806178 1.4334859 9.3103153e-39
8.2399788 -0.89920712 1.4998995 9.4032284e-39
8.194952 -0.63504469 1.5562319 9.6805313e-39
8.2236547 -0.70161647 1.4972293 9.4957813e-39
8.1940241 -0.46445537 1.5453206 9.6805313e-39
8.2188015 -0.50772768 1.4900734 9.3117502e-39
8.1992826 -0.39190981 1.4979458 8.0206457e-39
8.2293968 -0.27982929 1.5006163 9.0348102e-39
8.1954527 -0.0334659 1.5270689 8.6653032e-39
8.2359447 -0.10067624 1.4994819 9.4954282e-39
8.1938477 0.1366397 1.4991608 8.2965207e-39
8.2309904 0.094778106 1.4997612 9.2192001e-39
8.1841393 0.29712912 1.5052949 7.4667572e-39
8.2546186 0.30077732 1.4962012 8.4823553e-39
8.1923304 0.46204954 1.5130516 7.4671201e-39
8.2463942 0.50656068 1.4966965 8.113214e-39
8.1936855 0.68565094 1.546656 7.2834478e-39
8.2430534 0.69962251 1.4992847 7.9288228e-39
8.1928825 0.88076752 1.5518361 8.5745551e-39
8.2297525 0.86617863 1.4969548 8.1135742e-39
8.1934366 -1.0654304 1.7459061 1.0878365e-38
8.2272482 -1.0544204 1.7021058 1.0417385e-38
8.1940775 -0.89821327 1.6936538 1.0601769e-38
8.2302818 -0.89697957 1.699344 1.060177e-38
8.1950645 -0.6213305 1.6745919 1.060213e-38
8.2248611 -0.70208001 1.7004241 1.0786161e-38
8.1900539 -0.47186118 1.7251065 1.078724e-38
8.2119789 -0.5130415 1.6886772 1.0510652e-38
8.1946449 -0.3627359 1.7481759 8.2050467e-39
8.2245016 -0.27509767 1.6966507 1.0232636e-38
8.1978703 -0.077417128 1.6980274 9.8638492e-39
8.2278004 -0.10047442 1.69932 1.0417385e-38
8.1895485 0.12980843 1.7088969 9.0340843e-39
8.2279301 0.087637261 1.695707 1.0233714e-38
8.1768246 0.29894888 1.701769 7.928457e-39
8.2535763 0.30028149 1.6984425 9.3124803e-39
8.18717 0.44826585 1.7037934 7.7440672e-39
8.2390461 0.5131253 1.6992557 8.2979668e-39
8.1927614 0.69938064 1.6936377 7.283089e-39
8.2351141 0.69976699 1.7007033 7.9288242e-39
8.1966963 0.87915707 1.6887817 8.5741992e-39
8.2189579 0.86018229 1.6976502 8.1132154e-39
8.1878796 -1.0897839 1.9409738 1.2168384e-38
8.226079 -1.0535771 1.8918555 1.1615928e-38
8.1958399 -0.93637323 1.9250816 1.2261293e-38
8.2205954 -0.89556599 1.8986841 1.1984707e-38
8.1940813 -0.63563514 1.8645262 1.207726e-38
8.2164831 -0.70261687 1.9009516 1.2353487e-38
8.1872263 -0.46664044 1.8937696 1.2354206e-38
8.2104588 -0.54082406 1.9086378 1.2446043e-38
8.1918106 -0.32417756 1.9192632 1.0233355e-38
8.215456 -0.27311102 1.8954318 1.161557e-38
8.1943684 -0.13899122 1.9518886 1.1338259e-38
8.2234278 -0.099512264 1.8974942 1.1615568e-38
8.187479 0.11450028 1.899089 9.7712892e-39
8.2292643 0.08972647 1.9003683 1.1247507e-38
8.1696291 0.29968202 1.9000216 8.389075e-39
8.2424307 0.29991952 1.8998175 9.9578483e-39
8.1812038 0.47185013 1.9055085 7.8359013e-39
8.2255201 0.51328546 1.8969758 8.4823581e-39
8.1908407 0.68306494 1.9081445 7.0986964e-39
8.2211475 0.70258969 1.897758 7.7444315e-39
8.1936531 0.86723232 1.9288926 7.9288284e-39
8.2118626 0.85678643 1.8828919 7.9284626e-39
8.1928644 -1.1023296 2.0037987 1.2629362e-38
8.236537 -1.0765859 2.1049943 1.7607202e-38
8.1952209 -0.90043837 2.1762671 2.0545524e-38
8.2223558 -0.89513731 2.0993845 1.6679811e-38
8.2261438 -0.70135796 2.1009333 1.7603211e-38
8.189991 -0.47215787 2.0918686 1.8623157e-38
8.2118826 -0.53912497 2.1128461 1.9729863e-38
8.1924162 -0.32488051 2.0562856 1.2999226e-38
8.2234945 -0.27681631 2.1104717 1.5481628e-38
8.1958904 -0.12700975 2.0446684 1.1889991e-38
8.2301273 -0.10489425 2.0907447 1.2074731e-38
8.4014645 -0.10459936 2.1519098 1.3272922e-38
8.1898518 0.127534 2.0612674 9.6790908e-39
8.2221479 0.093787529 2.1074102 1.2164388e-38
8.1765566 0.29989073 2.0982208 9.7712934e-39
8.233572 0.29813966 2.1005285 1.1801406e-38
8.1859589 0.4854669 2.085233 7.0965328e-39
8.221241 0.50613081 2.1072965 8.5720188e-39
8.192421 0.70227337 2.0924246 6.4497116e-39
8.2164278 0.69880086 2.104007 7.2801925e-39
8.1887732 0.84525001 2.0562508 7.0057847e-39
8.2265406 0.86438191 2.1183794 6.3607712e-39
9.1104212 -3.4035671 2.362473 1.097488e-38
9.145278 -3.3420057 2.3795941 1.0605381e-38
9.2167139 -3.3151095 2.3968797 1.0879096e-38
9.1230984 -3.0770643 2.3358533 1.1431171e-38
9.116559 -2.9637775 2.2989514 1.4657655e-38
9.0628653 -2.2592628 2.3899927 1.0959753e-38
8.9874687 -2.1481833 2.3555923 1.1332857e-38
9.0639114 -2.0697827 2.366708 1.2444251e-38
8.7859831 -1.884307 2.3425543 1.5667837e-38
8.8179064 -1.9290321 2.3146455 1.3458049e-38
9.0604219 -1.8805009 2.3482606 1.3365845e-38
9.0693588 -1.7005945 2.3286121 1.6313212e-38
9.0428219 -1.4281949 2.39498 2.3233649e-38
8.1834803 -1.1007531 2.3631887 1.6134242e-38
8.2230682 -1.0785942 2.2875938 1.401299e-38
8.1964035 -0.96401531 2.3601983 1.1520485e-38
8.2235956 -0.90818268 2.2570064 1.9256952e-38
8.1905975 -0.60322046 2.3900995 2.3417689e-38
8.2412825 -0.70039797 2.2555766 1.9813742e-38
8.182765 -0.48486707 2.3224871 2.0374518e-38
8.2139473 -0.51350176 2.2622559 1.8344411e-38
8.1820631 -0.34811032 2.3133147 1.6777804e-38
8.2267694 -0.28414369 2.2571564 1.7137161e-38
8.1920843 -0.11507419 2.2892215 1.1237378e-38
8.2409792 -0.13233903 2.2496331 1.2533886e-38
8.1939735 0.14863591 2.3350718 9.4068213e-39
8.2221279 0.099760771 2.2949941 1.3178504e-38
8.1825514 0.29804429 2.2499368 3.7854579e-39
8.2271004 0.30006224 2.3142633 7.4707607e-39
8.1920424 0.47958946 2.2629695 5.621767e-39
8.2252426 0.49880248 2.2987967 7.1894571e-39
8.1899014 0.70326579 2.310833 8.1081539e-39
8.2215633 0.69569147 2.2936842 8.5691321e-39
8.1897106 0.83363616 2.3145394 4.5164957e-39
8.2349243 0.86837351 2.2985873 6.8206717e-39
9.1036825 -3.4053402 2.4006371 1.0511744e-38
9.205267 -3.4049726 2.5535142 8.7585848e-39
9.1431551 -3.310113 2.4975717 9.4965114e-39
9.2093945 -3.3191824 2.4157565 1.0879094e-38
9.1377382 -3.1036165 2.5024393 9.4050276e-39
9.2047186 -3.1333311 2.4521565 8.6706898e-39
9.0890274 -2.9000313 2.5200067 9.036964e-39
8.9956932 -2.7231412 2.5196173 9.2192085e-39
9.0620832 -2.6953449 2.5245042 9.5879812e-39
9.087678 -2.5125878 2.5209816 9.2188455e-39
9.089057 -2.3113506 2.5045667 9.1255681e-39
9.0641823 -2.0876467 2.4990277 9.9556889e-39
8.7788868 -1.8511087 2.4826055 1.0693977e-38
8.8106194 -1.8612443 2.5120771 1.0140803e-38
9.0577469 -1.89254 2.4947319 1.0877288e-38
8.7823362 -1.789501 2.5381436 8.9422558e-39
9.0660229 -1.6991316 2.5008337 1.1889995e-38
9.0652666 -1.5013546 2.5034578 1.4195969e-38
9.0583878 -1.3969131 2.5928328 1.0324108e-38
8.1870928 -1.0872529 2.4339755 1.0232343e-38
8.2007542 -1.1282638 2.4144788 1.7888133e-38
8.1934681 -0.97730953 2.4575861 8.5572757e-39
8.2370129 -0.98084402 2.4385631 9.3945894e-39
8.7792206 -0.86775643 2.5984478 1.2624669e-38
8.1786652 -0.48485234 2.4747164 2.0006111e-38
8.205121 -0.51898873 2.46261 2.2495013e-38
8.1840515 -0.34655681 2.4854243 1.6133879e-38
8.2149229 -0.30092686 2.4863207 7.6511583e-39
8.7519636 -0.29667589 2.5892034 7.8373474e-39
8.8137712 -0.24960367 2.5396969 8.6663864e-39
8.2177668 -0.010674597 2.507678 1.2534214e-38
8.7953176 -0.13053881 2.546767 8.5756159e-39
8.8142548 -0.10527811 2.5165417 1.3182125e-38
8.1933641 0.11401367 2.4561496 1.6688077e-38
8.2173853 0.09886875 2.4828582 1.3090265e-38
8.1904354 0.30089509 2.5317848 9.5836554e-39
8.2325974 0.30042374 2.4803004 1.3365492e-38
8.1926899 0.4979969 2.4953697 8.8478952e-39
8.2344942 0.46009228 2.4776418 6.6370106e-39
8.1806097 0.69771886 2.4962201 8.755338e-39
8.2323589 0.71131021 2.5036495 1.0231554e-38
8.1834803 0.83693075 2.5103385 5.4380974e-39
8.2230387 0.86540449 2.4947207 7.466767e-39
9.1606951 -3.4220304 2.7498615 6.4536941e-39
9.1373777 -3.2910099 2.7020447 7.2834548e-39
9.1170368 -3.0801809 2.6937678 7.928827e-39
9.0781584 -2.8835597 2.697113 8.1125022e-39
8.9920797 -2.7120912 2.6663384 8.112142e-39
9.0723619 -2.6876161 2.6992884 7.6515212e-39
9.0895271 -2.4916408 2.7016184 6.7295621e-39
9.0965834 -2.2983153 2.6989255 6.4529738e-39
9.0704756 -2.0879288 2.6983063 6.8210361e-39
8.774477 -1.8108207 2.6553981 7.0976272e-39
8.8257971 -1.8166953 2.6733382 7.0976272e-39
9.0554438 -1.8970025 2.7009594 7.1898186e-39
8.7757959 -1.7198077 2.7294323 1.1794557e-38
8.8044205 -1.7787832 2.7194583 6.4518934e-39
9.0600615 -1.6944222 2.6978011 7.6500807e-39
8.7796879 -1.4537541 2.7926617 1.316199e-38
9.0694571 -1.5053117 2.697365 9.7705942e-39
8.776577 -1.3966266 2.7917957 6.8044587e-39
8.8073473 -1.2160432 2.7773108 6.083471e-39
9.0517378 -1.396724 2.6508932 1.0605045e-38
8.7689028 -1.0729384 2.7201717 6.5448093e-39
8.8066425 -1.1141808 2.7141159 7.5589612e-39
8.7798548 -0.89854497 2.7015517 9.2177595e-39
8.8081083 -0.92768228 2.656321 1.2905588e-38
8.7908812 -0.77431774 2.7331278 2.0928785e-38
8.8102608 -0.77884001 2.6674578 2.3140386e-38
8.7956095 -0.46975747 2.7996235 2.1853608e-38
8.7894526 -0.29926813 2.7320147 6.0852717e-39
8.8183908 -0.23778129 2.6714609 6.9150324e-39
8.7853727 -0.109114 2.7070754 1.1338578e-38
8.8170137 -0.16312125 2.6912785 7.1926842e-39
8.7928057 0.0090913586 2.7996807 1.8067046e-38
8.8077545 0.12375775 2.7981339 1.3822814e-38
8.7696905 0.30383611 2.7994843 1.022433e-38
8.7801189 0.59420598 2.754142 5.2537076e-39
8.8061819 0.5836885 2.7956269 3.3176007e-39
8.2307558 0.71573317 2.6062453 9.494345e-39
8.7849674 0.61702538 2.7308047 1.0231549e-38
8.8150873 0.62889141 2.7579741 1.1153508e-38
8.1941881 0.86026716 2.6047375 5.9916215e-39
8.2142324 0.86114758 2.6071634 7.1901815e-39
9.1325092 -3.2761643 2.8976128 6.7295621e-39
9.1128645 -3.0866876 2.9067285 7.1901815e-39
9.2120075 -3.1842501 2.8033035 7.5593228e-39
9.0843229 -2.8883159 2.9107616 6.9139548e-39
9.0793343 -2.6830933 2.8885472 6.1767485e-39
9.0967779 -2.4992783 2.9009762 5.5310189e-39
9.0981483 -2.3024747 2.9025133 5.6228558e-39
9.057147 -2.0917571 2.9005365 6.3600621e-39
8.9940252 -1.9119425 2.9858863 7.2813038e-39
9.0519114 -1.9027033 2.8997788 6.7284845e-39
8.7735214 -1.6756935 2.827512 6.3582545e-39
8.8015842 -1.7348932 2.824147 5.2573229e-39
9.0551643 -1.699181 2.8983893 6.9125184e-39
8.7814512 -1.4921628 2.910625 5.8983553e-39
8.8141365 -1.4671803 2.8636582 5.898714e-39
9.0722666 -1.5028316 2.9000835 8.7528297e-39
8.78473 -1.2784194 2.9183998 5.6235705e-39
8.8194494 -1.3104717 2.8975937 5.6224929e-39
9.0471249 -1.2992929 2.9230392 7.1862215e-39
8.7734642 -1.0939174 2.8969836 5.5313763e-39
8.8059969 -1.1216824 2.892875 5.5313763e-39
9.0335503 -1.1738235 2.8905103 6.6341337e-39
8.7775478 -0.90197736 2.8961284 5.8076002e-39
8.8039532 -0.86442292 2.9221694 5.4391792e-39
8.7789793 -0.70141846 2.8929498 7.1905347e-39
8.8170195 -0.73924351 2.8799188 5.9005217e-39
8.7702923 -0.49940723 2.8932087 6.2693e-39
8.8080978 -0.45444357 2.8493321 5.4395422e-39
8.7799025 -0.29649505 2.8922474 4.9792829e-39
8.8081303 -0.30269948 2.9112606 5.071117e-39
8.7742271 -0.095594473 2.8886504 4.7016142e-39
8.8162928 -0.16507211 2.9040005 4.7941728e-39
8.7881966 0.071503095 2.9096322 4.3328303e-39
8.8066263 0.152182 2.8733091 4.6083326e-39
8.7809954 0.32644883 2.8963475 3.7796593e-39
8.8122892 0.26478478 2.8986394 4.2399158e-39
8.7875967 0.51441169 2.9045832 3.2268484e-39
8.8123341 0.48643973 2.8939638 3.5027137e-39
8.7862911 0.69121253 2.9153407 3.1339297e-39
8.8086395 0.65707374 2.8987725 4.8856439e-39
8.795908 0.81188375 2.9060698 2.6736761e-39
9.1186743 -3.2720163 3.0975037 5.8994357e-39
9.1021929 -3.0934007 3.0931449 6.2678637e-39
9.0822363 -2.8931923 3.0808101 6.2678721e-39
9.087471 -2.693346 3.0725541 6.1760352e-39
9.0926294 -2.5094399 3.0827386 6.451899e-39
8.9807243 -2.2984982 3.119333 6.7288362e-39
9.0810289 -2.3047941 3.0800982 6.7292076e-39
8.9998703 -2.0664799 3.1105883 8.1124966e-39
9.0588026 -2.1067722 3.0782082 7.5589683e-39
8.9991817 -1.8484504 3.0172279 7.3749343e-39
9.0459671 -1.9002826 3.068537 7.651524e-39
9.0560493 -1.6937009 3.078831 8.295813e-39
8.7911825 -1.4289244 3.0026882 5.9005175e-39
8.8682871 -1.4036607 3.0301361 6.5448107e-39
9.074398 -1.5170965 3.0916405 8.2036202e-39
8.796279 -1.3884535 3.004339 5.9001574e-39
8.825141 -1.3048199 3.0074317 5.8997972e-39
9.030695 -1.3285471 3.0623305 7.4656936e-39
8.8976145 -1.1044248 3.0171208 6.3607768e-39
8.8121328 -0.98993063 3.0011361 5.7164836e-39
8.8084135 0.72957128 3.0001335 2.7658689e-39
9.1081924 -3.2721074 3.2773442 4.7012625e-39
9.1119947 -3.0800171 3.2385418 1.013973e-38
9.0905294 -2.9631805 3.2223837 2.1483396e-38
9.0865402 -1.5522789 3.2064915 9.0333893e-39
