# .PCD v0.7 - Point Cloud Data file format
VERSION 0.7
FIELDS x y z rgb
SIZE 4 4 4 4
TYPE F F F F
COUNT 1 1 1 1
WIDTH 66
HEIGHT 1
VIEWPOINT 0 0 0 1 0 0 0
POINTS 66
DATA ascii
-4.3500047 2.4699132 0.96043485 1.0144058e-38
-3.017473 7.6960168 0.98626465 6.9103422e-39
-4.3586535 2.3963997 1.1305132 1.3556027e-38
-4.3498025 2.4629991 1.1011095 1.0512482e-38
-3.0175714 7.7532187 1.1648414 1.0041357e-38
-2.99703 7.7925892 1.1470627 1.0500524e-38
-3.00366 7.8028827 1.1533152 1.0039907e-38
-2.9875166 7.8323741 1.1615425 9.9473372e-39
-2.9125469 8.0647182 1.1154284 1.0591625e-38
-2.8381629 8.3104305 1.1130182 1.1328474e-38
-2.7982473 8.3920784 1.0535561 9.3023517e-39
-2.8033192 8.4151068 1.1160334 1.1419942e-38
-2.786243 8.4642258 1.1192271 1.1236633e-38
-4.3567166 2.3881111 1.3319745 1.3463475e-38
-4.3439655 2.4607558 1.2996314 1.0696156e-38
-3.0169079 7.7529402 1.301074 1.068455e-38
-2.9968772 7.7942281 1.2737875 1.0961136e-38
-3.0019243 7.8049326 1.3063488 1.1052611e-38
-2.9879191 7.8336387 1.299077 1.059199e-38
-2.9098561 8.0597763 1.2099385 1.1421769e-38
-2.8415916 8.3062801 1.2167785 1.1882023e-38
-2.8094125 8.4166794 1.306723 1.2064954e-38
-2.7857997 8.4656181 1.296535 1.2526283e-38
-4.3515811 2.387217 1.5002314 1.3002857e-38
-4.337688 2.4614701 1.4993385 1.0328092e-38
-3.0176637 7.7546387 1.497978 1.0869306e-38
-2.9991252 7.7927899 1.4766557 1.1237368e-38
-3.0028505 7.8082223 1.4994466 1.123737e-38
-2.9897311 7.835999 1.4993104 1.0868584e-38
-2.8093352 8.4294119 1.4987764 1.3263497e-38
-2.7875319 8.4741802 1.4989707 1.3724467e-38
-4.3417368 2.3904188 1.7008569 1.254188e-38
-4.332303 2.4533427 1.6984391 1.0328457e-38
-3.0182073 7.7576966 1.6973456 1.1330291e-38
-2.9974666 7.7964253 1.6610101 1.1698715e-38
-3.0029337 7.8121443 1.700966 1.1791268e-38
-2.9899569 7.8378978 1.7006814 1.1238091e-38
-2.809474 8.4350367 1.7021375 1.4830824e-38
-2.7884092 8.4801702 1.6972435 1.5291077e-38
-4.3353977 2.3918865 1.9069279 1.1711402e-38
-4.3246555 2.4534345 1.8982369 9.4983373e-39
-3.0168407 7.7621055 1.8986877 1.1330656e-38
-2.9975684 7.7946882 1.9575405 1.1883109e-38
-3.0026824 7.808413 1.876423 1.1790912e-38
-2.9887149 7.8347712 1.9007845 1.1422487e-38
-2.8093641 8.4376507 1.8945407 1.6581821e-38
-2.7881629 8.4829693 1.9021907 1.7134987e-38
-4.32939 2.3932812 2.078604 1.1066032e-38
-4.3192282 2.4516222 2.1000733 8.7607751e-39
-3.0139799 7.7605176 2.0980084 1.0686005e-38
-2.9981997 7.7904692 2.0609386 1.1054067e-38
-3.0031517 7.8183208 2.1333013 1.0870396e-38
-2.9934497 7.8386664 2.0703506 1.114662e-38
-2.9163647 8.0673819 2.1055024 1.2437e-38
-2.8514826 8.3066673 2.1111493 1.52929e-38
-2.8101361 8.4356318 2.1081772 1.7964754e-38
-2.7908704 8.486846 2.0917385 1.8886348e-38
-4.3100991 2.4481418 2.2528777 9.4065046e-39
-3.0172362 7.7435989 2.2075477 9.5803721e-39
-2.9943032 7.7905669 2.2148795 1.1238103e-38
-3.0027997 7.8268843 2.2266347 1.0777485e-38
-2.9648461 7.9101543 2.2199366 1.1606884e-38
-2.9239759 8.0495443 2.2215238 1.2436633e-38
-2.8475981 8.3098478 2.227248 1.6951334e-38
-2.8085134 8.4601698 2.2292285 1.8610482e-38
-2.7958939 8.4915781 2.2222483 1.9625353e-38
