# .PCD v0.7 - Point Cloud Data file format
VERSION 0.7
FIELDS x y z rgb
SIZE 4 4 4 4
TYPE F F F F
COUNT 1 1 1 1
WIDTH 1072
HEIGHT 1
VIEWPOINT 0 0 0 1 0 0 0
POINTS 1072
DATA ascii
2.6793923 16.242191 0.6349771 6.9168386e-39
2.8925157 16.257383 0.67401993 6.5480519e-39
3.0867445 16.37516 0.71668005 6.5444324e-39
-12.494495 15.390163 0.86794043 8.387287e-39
-12.290583 15.384963 0.88157308 8.5713195e-39
-12.108307 15.382541 0.90510947 8.9404636e-39
-11.910315 15.388798 0.95524949 9.5858358e-39
-11.700418 15.385019 0.97656745 1.0417031e-38
-11.522253 15.390335 0.97507179 1.1429747e-38
-11.274472 15.388822 0.94441897 1.2166963e-38
-10.254041 15.393138 0.96952516 1.3629053e-38
-10.128398 15.395665 0.98884106 1.2248649e-38
-12.445548 15.425439 0.92954046 8.3876429e-39
-12.287144 15.418334 0.94950533 8.3872884e-39
-12.132523 15.406687 0.92910862 8.6638767e-39
-11.710749 15.412298 0.96835721 1.0046813e-38
-11.523171 15.409866 0.97995019 1.0785814e-38
-11.325747 15.418884 0.95008725 1.1705974e-38
-11.14338 15.426986 0.97526568 1.2166957e-38
-10.869934 15.450511 0.88357741 1.2259868e-38
-10.697902 15.46367 0.85316193 6.9121555e-39
-10.492652 15.476371 0.88300747 5.2526258e-39
-10.272448 15.488133 0.9151991 6.4464774e-39
-10.16368 15.419304 0.9869045 1.3538298e-38
-9.2937937 15.565262 0.92100424 1.1335007e-38
-9.1899529 15.593451 0.91360074 1.234916e-38
-8.8407459 15.586151 0.90016931 1.1614105e-38
-8.6436329 15.593596 0.89101279 9.9455547e-39
-8.5238743 15.596742 0.90099168 1.0866432e-38
-8.3426199 15.598687 0.85403699 1.0589847e-38
-8.1698532 15.597323 0.83725303 1.3356422e-38
-7.8997073 15.569077 0.90455067 1.3263146e-38
-7.6818242 15.589448 0.8929019 1.3723766e-38
-7.5619144 15.595464 0.90160805 1.4553891e-38
-7.3383636 15.597896 0.93106282 1.5196381e-38
-9.0259104 15.654552 0.90850633 1.15212e-38
-8.9046555 15.657746 0.91674763 1.2351681e-38
-8.7293072 15.658175 0.94679469 1.0323732e-38
-8.4827108 15.604297 0.90120614 1.0682401e-38
-8.2969904 15.610938 0.90053022 1.0497647e-38
-8.0976276 15.617773 0.90118909 1.0866435e-38
-7.8306355 15.622357 0.90848333 5.6170544e-39
-7.6511006 15.636854 0.9027316 6.076955e-39
-7.5097265 15.642179 0.89820629 6.8137942e-39
-7.2977424 15.654305 0.9001196 6.7212412e-39
-7.0516829 15.670013 0.902668 7.4595237e-39
-6.907445 15.676614 0.89932221 6.3549838e-39
-6.6702504 15.693213 0.90106183 7.9212193e-39
-6.502965 15.700954 0.89998174 7.8290223e-39
-6.2598543 15.725303 0.90220827 7.8293866e-39
-6.1052461 15.732875 0.89851826 7.5524382e-39
-5.8477168 15.756269 0.90255898 7.6450024e-39
-5.704401 15.762847 0.90004808 7.9230312e-39
-5.4222245 15.780936 0.90873629 7.0925517e-39
-5.3075385 15.788437 0.89714825 7.5542515e-39
-5.0076075 15.796166 0.9543674 6.7317243e-39
-4.9693756 15.796916 0.90058023 7.0075937e-39
-5.4630117 15.805382 0.85262561 6.728825e-39
-5.2199788 15.801525 0.8513186 7.2783821e-39
-5.0110979 15.803139 0.91513115 6.9150366e-39
-4.9519382 15.80844 0.8991704 7.1916221e-39
-3.0385644 15.920522 0.88352489 8.2043265e-39
-2.8981738 15.933283 0.90469921 7.3745644e-39
-2.6390893 15.996973 0.90527457 7.6511401e-39
-2.4953046 15.991159 0.94061828 7.9270025e-39
-2.2039568 15.921731 0.9003793 1.1982163e-38
-2.1056376 15.928173 0.90030318 1.1983984e-38
-1.8994098 15.940495 0.90001017 1.1615206e-38
-1.7070605 15.952117 0.89912218 1.1062392e-38
-1.508508 15.959607 0.89814693 1.0509936e-38
-1.3066061 15.972032 0.89542609 1.0140795e-38
-1.1536398 15.983362 0.91019779 9.9567637e-39
-2.8365006 16.007935 0.88397622 8.4801735e-39
-2.6252973 16.005688 0.90672982 7.6511401e-39
-2.4192905 16.004045 0.9075495 7.9266353e-39
-2.393512 16.003967 0.91556233 7.8348012e-39
-2.0546787 16.010202 0.90628773 7.2834506e-39
-1.8529313 16.00247 0.93562752 7.1912563e-39
-1.6522852 16.002913 0.892398 6.9150254e-39
-1.4260826 16.003067 0.89190984 6.7306355e-39
-1.2937993 16.005774 0.90099686 6.5462457e-39
-1.1150359 16.016813 0.90038681 6.4540514e-39
-0.91880822 16.025448 0.89628226 6.4544102e-39
-0.71581662 16.034283 0.90513462 6.7306355e-39
-0.49690038 16.042368 0.89625347 7.0068665e-39
-0.30786058 16.053328 0.89831984 7.1916165e-39
-0.11389384 16.066029 0.90409935 7.5604004e-39
0.1323175 16.073656 0.90504378 7.8369887e-39
0.30180666 16.091429 0.89834571 8.0217401e-39
0.49241993 16.099977 0.8862955 8.1135756e-39
0.72833091 16.103922 0.89082545 8.1139357e-39
0.91385025 16.112013 0.89964718 8.1139371e-39
1.0873257 16.123434 0.91136581 8.0221002e-39
1.2982762 16.131771 0.89526355 7.8377089e-39
1.4910809 16.150164 0.91278905 7.5614822e-39
1.6832515 16.164009 0.91318941 7.2852568e-39
1.8726031 16.169876 0.88151091 7.1930612e-39
2.0974052 16.174749 0.90061468 7.0086727e-39
2.3001249 16.181053 0.89774793 7.0086727e-39
2.483696 16.178801 0.93466502 6.9164785e-39
2.6801286 16.184254 0.84231514 6.9175575e-39
2.8828144 16.19573 0.80497944 7.0097531e-39
0.39065319 16.208511 0.96154523 8.1139343e-39
0.50831515 16.204916 0.93465787 8.0217387e-39
0.72968245 16.209187 0.91197681 7.8373488e-39
0.91899681 16.21715 0.88614112 7.561122e-39
1.1094791 16.218517 0.90764993 7.4689264e-39
1.2772288 16.231297 0.8954221 7.3767322e-39
1.4984692 16.244219 0.89902747 7.1927039e-39
1.6754397 16.256708 0.92491353 6.9164757e-39
1.9321557 16.272215 0.90879422 6.9164757e-39
2.0605533 16.28356 0.88832676 7.0083154e-39
2.3517845 16.2215 0.95841449 6.8250017e-39
2.4850869 16.218805 0.94348955 6.9168372e-39
2.7052946 16.220018 0.9113465 6.9175561e-39
2.8797579 16.232689 0.87901163 6.9171974e-39
3.0288877 16.261925 0.86922008 6.455136e-39
-12.481621 15.369403 1.1291422 8.4802001e-39
-12.276932 15.366852 1.1225046 8.9408223e-39
-12.081038 15.363253 1.0870125 9.6780286e-39
-11.896863 15.358284 1.0905682 1.050887e-38
-11.699016 15.373185 1.0824553 1.1154239e-38
-11.538706 15.379864 1.1002773 1.1983281e-38
-11.322685 15.391966 1.0829693 1.2720127e-38
-10.241753 15.391452 1.1143532 1.4368411e-38
-10.117955 15.393891 1.0813541 1.2803979e-38
-9.9485483 15.395106 1.1212977 8.4780211e-39
-12.482588 15.440323 1.0694069 8.6638655e-39
-12.279821 15.426738 1.0434411 8.3879974e-39
-12.146346 15.407767 1.040321 8.6642298e-39
-11.668877 15.415794 1.1298267 1.0415959e-38
-11.290916 15.414834 1.1312178 1.262829e-38
-11.115594 15.430963 1.0871545 1.2720847e-38
-10.907969 15.448387 1.0930752 1.2906678e-38
-10.684871 15.47487 1.1023409 7.650445e-39
-10.514647 15.480409 1.1014661 5.7135983e-39
-10.27002 15.463301 1.0981957 9.5800274e-39
-10.144934 15.43852 1.0994749 1.2803988e-38
-9.9004602 15.413948 1.1054912 9.1219457e-39
-9.7489977 15.433113 1.1675104 1.0966218e-38
-9.2100296 15.580236 1.0127089 1.2257324e-38
-9.1215897 15.598531 1.1363596 1.2443148e-38
-8.8381176 15.577098 1.0993772 1.1244243e-38
-8.6386299 15.595871 1.0894762 9.8529933e-39
-8.5496435 15.596694 1.0995332 1.0589477e-38
-8.3865614 15.59932 1.1352139 1.0220331e-38
-8.1058655 15.593907 1.101138 8.106733e-39
-7.906724 15.597398 1.0679996 5.4333961e-39
-7.6890469 15.586601 1.0912665 1.3814516e-38
-7.5206528 15.596455 1.0815675 1.436805e-38
-9.0160322 15.659682 1.1012416 1.0783271e-38
-8.8929024 15.66572 1.0995239 1.262791e-38
-8.7190762 15.659109 1.1000242 1.0323733e-38
-8.4779825 15.606747 1.0981477 1.0404727e-38
-8.2939749 15.6129 1.0990633 1.0128138e-38
-8.0974388 15.624077 1.0967463 1.0221421e-38
-7.8446593 15.619658 1.1086682 5.8018128e-39
-7.6607432 15.632103 1.1029314 6.2606246e-39
-7.4065614 15.643911 1.1592815 6.8123592e-39
-7.3050585 15.649628 1.0976971 6.9967449e-39
-7.0633292 15.665914 1.1035273 7.550276e-39
-6.9066854 15.674341 1.1021419 5.8025289e-39
-6.6834211 15.690195 1.1030171 8.5662258e-39
-6.5005403 15.697687 1.1008141 8.5662216e-39
-6.2707572 15.722028 1.101925 8.3818345e-39
-6.1064129 15.731479 1.0996573 7.3687742e-39
-5.8623848 15.753342 1.10323 8.1059721e-39
-5.7066369 15.760235 1.1003774 8.1070581e-39
-5.4386845 15.778987 1.1031127 7.6453667e-39
-5.3085413 15.785188 1.1000308 7.5538899e-39
-5.0236397 15.796922 1.1195481 6.7310069e-39
-4.9606705 15.797156 1.1337292 7.1916235e-39
-5.4205189 15.803127 1.1259934 7.4620573e-39
-5.2500868 15.801507 1.0592697 6.7248566e-39
-5.0266757 15.803049 1.1045526 6.8232025e-39
-4.9461036 15.80654 1.0891458 7.7447958e-39
-3.2282782 15.908697 1.0511233 8.3894352e-39
-3.0532513 15.921035 1.09886 8.7574988e-39
-2.8920481 15.943534 1.1083431 7.5589514e-39
-2.6050382 15.979219 1.1628857 8.1113993e-39
-2.5067348 15.987096 1.0999031 8.2032306e-39
-2.2113829 15.92748 1.0999231 8.2050383e-39
-2.1080775 15.927405 1.0990041 1.2444964e-38
-1.9020222 15.942319 1.1003788 1.1799957e-38
-1.7041776 15.953054 1.1012384 1.1246425e-38
-1.5034436 15.96088 1.0972989 1.0693251e-38
-1.2980498 15.968609 1.1036862 1.0232273e-38
-1.1399074 15.976323 1.0914818 9.9560434e-39
-2.8155317 16.011805 1.1227058 8.6656493e-39
-2.6355381 16.0044 1.1015236 8.2039537e-39
-2.4054821 16.00272 1.0905281 8.2965039e-39
-2.3908393 16.002321 1.0743802 8.0199198e-39
-2.0611005 16.007956 1.0885214 7.4678404e-39
-1.8088489 16.00275 1.1879951 7.2841708e-39
-1.6365144 16.00576 1.1166064 6.9150268e-39
-1.4394027 16.002544 1.1170784 6.7306341e-39
-1.2936699 16.005726 1.0991932 6.5462457e-39
-1.0984488 16.015604 1.0975451 6.3622131e-39
-0.89621729 16.024004 1.1008849 6.4544088e-39
-0.70567465 16.033072 1.0941933 6.6388e-39
-0.51159555 16.038385 1.1031244 6.9153869e-39
-0.30223149 16.043974 1.1040226 7.2841708e-39
-0.10364698 16.052727 1.0904051 7.6529533e-39
0.11758969 16.066029 1.0990386 8.1142916e-39
0.3189815 16.084219 1.1004105 8.4830755e-39
0.51297134 16.100334 1.0934343 8.575274e-39
0.69662416 16.110662 1.1136576 8.5759914e-39
0.90260035 16.116232 1.1054362 8.5759914e-39
1.097474 16.12784 1.0904186 8.2994074e-39
1.330026 16.135933 1.1000494 8.0228219e-39
1.4745739 16.149158 1.1158392 7.6540422e-39
1.6690133 16.151564 1.1118922 7.3774553e-39
1.8614738 16.155962 1.0926377 7.193064e-39
2.0907044 16.155788 1.0941006 7.0086727e-39
2.2584674 16.177982 1.0918932 6.7320859e-39
2.4848769 16.187908 1.0370023 6.8242815e-39
2.6009376 16.199507 1.0308385 6.9164771e-39
0.5565986 16.202505 1.0856166 8.2986857e-39
0.725748 16.204494 1.1315953 8.2986885e-39
0.93243146 16.208218 1.0955865 8.0221016e-39
1.1232003 16.215866 1.1158055 7.6536792e-39
1.3056868 16.225636 1.110926 7.2852568e-39
1.4938284 16.230034 1.0952393 7.1008656e-39
1.6891041 16.246725 1.09145 6.8242787e-39
1.9211249 16.236658 1.1417686 6.8242801e-39
2.0842378 16.231062 1.1708732 6.7320873e-39
2.3088622 16.214003 1.1177148 6.7320859e-39
2.5377412 16.215666 1.1007013 6.8242815e-39
2.6992638 16.221365 1.0627052 6.9168344e-39
2.8757215 16.235876 1.0245386 6.6398874e-39
3.0667026 16.359245 1.0045015 5.8083107e-39
-12.528375 15.382687 1.2827659 8.1117721e-39
-12.297857 15.360472 1.3161923 9.1252136e-39
-12.120241 15.355403 1.3084881 9.8631401e-39
-11.924905 15.356804 1.3372525 1.1061326e-38
-11.678467 15.387985 1.2950237 1.1523026e-38
-11.495171 15.390488 1.2973812 1.2536818e-38
-11.292317 15.397618 1.3305869 1.3367297e-38
-10.233905 15.395365 1.2108876 1.473755e-38
-10.124478 15.395192 1.2530646 1.3910314e-38
-9.9317255 15.391823 1.3438468 9.7694759e-39
-12.526472 15.420986 1.3364189 8.2032418e-39
-12.353082 15.426801 1.3367677 8.2036076e-39
-12.125979 15.406399 1.2815168 8.6645955e-39
-11.65417 15.410765 1.3007207 1.1061688e-38
-11.480024 15.41739 1.3245577 1.2075841e-38
-11.287966 15.422305 1.3013818 1.290596e-38
-11.107454 15.427156 1.3053306 1.3552049e-38
-10.890707 15.450862 1.3127702 1.2906676e-38
-10.704329 15.472054 1.2926331 9.126287e-39
-10.491206 15.48864 1.2995993 6.3586034e-39
-10.264164 15.474125 1.2953968 1.0408342e-38
-10.127105 15.429891 1.3096248 1.5199251e-38
-9.918272 15.415355 1.2965827 8.6627711e-39
-9.766963 15.429049 1.2561338 1.1058771e-38
-9.2455187 15.580552 1.2459135 1.0782546e-38
-9.192091 15.591086 1.2620039 1.1244247e-38
-8.8241663 15.582407 1.2734497 1.0967299e-38
-8.6348972 15.596532 1.2930599 1.0406527e-38
-8.5306168 15.59736 1.2776663 1.077351e-38
-8.3409262 15.598635 1.2821465 1.1603631e-38
-8.108346 15.558057 1.2951519 1.2618494e-38
-7.8945456 15.597335 1.3442346 6.169152e-39
-7.7509785 15.597502 1.2768459 6.2617022e-39
-7.5568275 15.593228 1.3109632 1.501413e-38
-7.3295078 15.599587 1.2952045 1.5656975e-38
-9.0127544 15.661786 1.3035146 1.1060215e-38
-8.8948517 15.6684 1.2992277 1.2720107e-38
-8.7142725 15.663201 1.3000282 1.0600321e-38
-8.4925165 15.607201 1.3007795 1.0589479e-38
-8.2949972 15.616177 1.3009706 1.0220695e-38
-8.0977364 15.626714 1.2998935 1.0773869e-38
-7.8491702 15.614344 1.3028841 6.0773123e-39
-7.6700397 15.62751 1.3012835 6.3531804e-39
-7.4130754 15.641713 1.3064888 7.2751324e-39
-7.3043914 15.645953 1.3012499 7.2740506e-39
-7.0735583 15.661385 1.3042285 8.1041658e-39
-6.9044342 15.671185 1.2960393 6.9085121e-39
-6.6954074 15.686377 1.3026361 9.3041482e-39
-6.5049114 15.695484 1.2993147 9.4885352e-39
-6.2850432 15.718937 1.3027718 9.1197569e-39
-6.099422 15.727882 1.2989261 9.1197527e-39
-5.8745666 15.749964 1.3064715 8.8438959e-39
-5.7062201 15.758134 1.2969041 8.6602291e-39
-5.453495 15.776823 1.3044859 8.1074211e-39
-5.3054276 15.782572 1.3000492 7.8308328e-39
-5.0287795 15.798116 1.3225207 6.45442e-39
-4.9570122 15.797039 1.2888708 7.2838219e-39
-5.4544606 15.801555 1.3208097 7.7393518e-39
-5.2471089 15.806366 1.3011258 4.9760235e-39
-5.0525579 15.803517 1.3017713 6.5469715e-39
-4.9362502 15.806025 1.3068403 8.943339e-39
-3.200789 15.920123 1.3809264 9.4972205e-39
-3.0623677 15.927542 1.3048036 9.4039458e-39
-2.8846707 15.953185 1.3005087 7.6515044e-39
-2.6137133 15.97725 1.3174865 8.5723789e-39
-2.5051889 15.984283 1.2998039 8.848963e-39
-2.203681 15.91783 1.3306009 1.345874e-38
-2.1143703 15.928503 1.2996166 1.3090693e-38
-1.9073603 15.942187 1.2997549 1.2260937e-38
-1.7078211 15.954281 1.2994078 1.1339698e-38
-1.5046439 15.961971 1.3013232 1.0601776e-38
-1.3000993 15.970296 1.2951458 1.0140437e-38
-1.1514043 15.978541 1.3043252 9.7720137e-39
-2.8093371 16.016747 1.2886317 9.219542e-39
-2.6407087 16.003099 1.2910683 8.7564072e-39
-2.4063339 16.004478 1.3220443 8.757489e-39
-2.3948629 16.002153 1.260741 8.5734551e-39
-2.0717921 16.00802 1.2997508 7.6525918e-39
-1.8134578 16.002554 1.3183076 7.4685635e-39
-1.6594729 16.008018 1.3021371 7.0072224e-39
-1.4247204 16.003788 1.2883233 6.6391601e-39
-1.2721395 16.004364 1.2927582 6.362932e-39
-1.0965598 16.011641 1.2963072 6.2703776e-39
-0.90105355 16.0217 1.3018186 6.3625747e-39
-0.69874632 16.031239 1.2989221 6.5473218e-39
-0.49640131 16.040415 1.3012748 7.0083014e-39
-0.29935881 16.049105 1.3019502 7.6529533e-39
-0.10085429 16.054762 1.3027852 8.0217359e-39
0.097456619 16.064632 1.3007499 8.4834329e-39
0.2950635 16.084736 1.2972407 8.9447726e-39
0.4937132 16.098083 1.2993813 9.2210035e-39
0.69272423 16.099989 1.3056493 9.3135607e-39
0.8702938 16.110638 1.2944144 9.3135621e-39
1.0997034 16.122927 1.3087867 9.0373353e-39
1.3079737 16.136496 1.3030075 8.5759984e-39
1.4708893 16.149178 1.299679 8.0231834e-39
1.7228432 16.160833 1.3098571 7.5618451e-39
1.8475589 16.170677 1.2695388 7.1934241e-39
2.070426 16.178204 1.2940658 6.9164771e-39
2.237329 16.180035 1.3091357 6.8242801e-39
2.4558072 16.174137 1.3058808 6.8246374e-39
0.52368551 16.204035 1.2421651 8.7607456e-39
0.68556249 16.203058 1.297753 8.760747e-39
0.92835224 16.205954 1.3137078 8.4841587e-39
1.1059109 16.215981 1.3027118 8.0228219e-39
1.2878404 16.224945 1.2981966 7.6543981e-39
1.5353963 16.239403 1.2960421 7.1012257e-39
1.7220178 16.262743 1.3054839 6.7313684e-39
1.9035839 16.234098 1.3329992 6.7324432e-39
2.0996397 16.217093 1.3340193 6.7324446e-39
2.2499161 16.21422 1.2865444 6.7320859e-39
2.5469732 16.215502 1.3208557 6.7331635e-39
2.7125058 16.236395 1.3231385 6.8257192e-39
2.9450493 16.282581 1.3338386 5.8093995e-39
3.0417848 16.341429 1.3611342 5.1618637e-39
-12.511804 15.373768 1.4726794 8.1117721e-39
-12.330295 15.35027 1.4914542 9.1255723e-39
-12.099503 15.332689 1.536829 1.0969846e-38
-11.934156 15.339174 1.5190682 1.1707772e-38
-11.676049 15.376965 1.4760453 1.2352782e-38
-11.489761 15.378192 1.4798521 1.3459491e-38
-11.329414 15.391541 1.4756687 1.4104862e-38
-10.221122 15.389384 1.5839981 1.7043881e-38
-10.130826 15.394766 1.4540312 1.5477637e-38
-9.9615383 15.396046 1.589345 1.5485601e-38
-12.5152 15.427324 1.4756523 7.7422595e-39
-12.352758 15.409241 1.5477372 8.0195751e-39
-11.70111 15.406798 1.4181262 1.1153878e-38
-11.462509 15.405496 1.4941754 1.308999e-38
-11.283885 15.413403 1.5094018 1.4012668e-38
-11.068652 15.435313 1.4998556 1.4474364e-38
-10.923882 15.44242 1.5012459 1.4751671e-38
-10.730812 15.456864 1.5025573 8.0195793e-39
-10.47644 15.481141 1.5098989 7.1869347e-39
-10.244028 15.470535 1.5001873 1.20675e-38
-10.121158 15.433387 1.4962264 1.5568398e-38
-9.8851986 15.434549 1.4995109 8.200372e-39
-9.7414989 15.448343 1.5104589 1.1243179e-38
-9.2305117 15.585244 1.5362908 1.1613031e-38
-9.1749134 15.59589 1.5575192 1.2350596e-38
-8.6200113 15.597916 1.5038794 1.0776031e-38
-8.5575857 15.598645 1.4962084 1.1604715e-38
-8.3857422 15.598017 1.5169754 1.298943e-38
-8.159936 15.58147 1.4423699 1.261993e-38
-7.9081182 15.599065 1.5787411 6.8152417e-39
-7.7702026 15.598584 1.4992971 6.6304875e-39
-7.4951782 15.596041 1.4685503 1.5843173e-38
-7.3813834 15.596633 1.4548062 1.5749881e-38
-3.5601356 15.509193 1.4952914 9.9592888e-39
-9.0100851 15.664923 1.5107158 1.2259482e-38
-8.9001141 15.670951 1.4991314 1.2904859e-38
-8.70963 15.666978 1.4997017 1.0324097e-38
-8.4955177 15.610797 1.4989169 1.1051899e-38
-8.2961464 15.617941 1.4965941 1.0313616e-38
-8.0971079 15.62854 1.5032734 1.1235936e-38
-7.8584528 15.609779 1.5053138 6.6304903e-39
-7.6793213 15.623574 1.5042174 6.8141585e-39
-7.424654 15.63725 1.5104593 8.2910836e-39
-7.3040032 15.642406 1.5007247 8.0119744e-39
-7.0857768 15.658321 1.5037373 9.3956235e-39
-6.8101315 15.679651 1.5470631 1.0778206e-38
-6.7044315 15.683847 1.5013285 1.0685645e-38
-6.5041924 15.695704 1.5026591 1.0778555e-38
-6.3001151 15.716552 1.5023754 1.0501615e-38
-6.1017599 15.727839 1.5011386 1.0133547e-38
-5.8876228 15.74791 1.502562 9.7654963e-39
-5.7051044 15.758084 1.502486 9.3977941e-39
-5.464509 15.774127 1.5064404 8.4769238e-39
-5.3030362 15.782908 1.4969918 8.1085015e-39
-5.0403152 15.796781 1.5089334 5.8094093e-39
-4.971283 15.796844 1.4768472 7.2841806e-39
-5.4335065 15.801065 1.433367 8.0166618e-39
-5.2555585 15.804111 1.4865136 5.7150248e-39
-5.0740376 15.803742 1.507892 5.5317392e-39
-4.9442639 15.805229 1.5053128 1.0049685e-38
-3.207866 15.917982 1.4885129 9.9581986e-39
-3.0637512 15.928631 1.4955103 1.0325904e-38
-2.8816102 15.957149 1.5036952 8.204674e-39
-2.6248407 15.974719 1.5082011 9.5868896e-39
-2.5021966 15.982543 1.4989804 9.8638338e-39
-2.2083061 15.920028 1.5199348 1.4104837e-38
-2.1086409 15.93036 1.4976641 1.3644952e-38
-1.9056933 15.943871 1.501775 1.2630441e-38
-1.7032104 15.956339 1.4987936 1.161593e-38
-1.5003283 15.963654 1.4987191 1.0694333e-38
-1.3072327 15.972443 1.4991415 1.0048964e-38
-1.147763 15.975949 1.4983114 9.6805383e-39
-2.811851 16.005007 1.4893029 1.078542e-38
-2.6326113 16.003399 1.5043854 9.7712794e-39
-2.4201853 16.006063 1.481733 9.2199091e-39
-2.3857491 16.018785 1.5032582 9.1277233e-39
-2.0508094 16.005896 1.53106 8.1139301e-39
-1.8164133 16.001226 1.4858494 7.4685607e-39
-1.6683713 16.010328 1.5010461 7.0079427e-39
-1.4458716 16.002766 1.456669 6.5473232e-39
-1.2770925 16.003767 1.4986944 6.2710965e-39
-1.0982869 16.009325 1.5015697 6.1785421e-39
-0.89548934 16.019117 1.5027575 6.2707378e-39
-0.69880044 16.026171 1.4890567 6.6391601e-39
-0.50664449 16.03381 1.5028278 7.1001383e-39
-0.31560743 16.044697 1.5057462 7.6533163e-39
-0.10237445 16.050779 1.5027654 8.2986857e-39
0.098561995 16.0693 1.4986824 9.0369696e-39
0.2846466 16.08815 1.4876313 9.7741759e-39
0.50856489 16.090818 1.5137395 1.0235514e-38
0.70665061 16.1042 1.5095795 1.0419548e-38
0.87979096 16.113304 1.4865152 1.0143323e-38
1.08724 16.126057 1.4935169 9.5912294e-39
1.2910554 16.129459 1.5034716 8.9465802e-39
1.4931551 16.142687 1.4824781 8.3001304e-39
1.7270678 16.148138 1.4994422 7.8384334e-39
1.9279848 16.144709 1.559029 7.3774553e-39
2.0986865 16.167755 1.5225692 6.8242815e-39
2.2280409 16.167288 1.4872284 6.8242815e-39
2.5312414 16.197966 1.4153093 6.8246388e-39
0.69857043 16.204285 1.4801488 9.5901518e-39
0.89098525 16.211779 1.4973828 9.1291736e-39
1.0788553 16.219297 1.5018302 8.4838028e-39
1.301097 16.226915 1.5154016 7.8384334e-39
1.4996815 16.239048 1.4794143 7.2852596e-39
1.7183036 16.252523 1.4962187 6.7320859e-39
1.9032419 16.263962 1.5320967 6.4558591e-39
2.1183884 16.281876 1.4843111 6.5484135e-39
2.3296151 16.254864 1.4497313 6.8249989e-39
2.5480735 16.317074 1.5155139 6.4565752e-39
2.7356927 16.328716 1.4981284 5.3487829e-39
2.895458 16.331617 1.4665233 4.9796374e-39
3.0356905 16.354582 1.4375441 6.3622047e-39
-12.493203 15.362307 1.6847069 7.9273822e-39
-12.278192 15.371516 1.7038682 8.6645941e-39
-12.087858 15.358972 1.6966575 1.0140086e-38
-11.909122 15.347156 1.7059641 1.1984004e-38
-11.680167 15.355658 1.6886773 1.3735362e-38
-11.453069 15.382998 1.6889024 1.4657318e-38
-11.321198 15.392489 1.6585411 1.6134246e-38
-11.167024 15.393794 1.7222499 1.8903707e-38
-10.254889 15.378495 1.6251402 1.8246784e-38
-10.120474 15.392983 1.6548038 1.816038e-38
-9.9252472 15.389888 1.6535724 1.456401e-38
-12.500868 15.404812 1.6279248 7.3741972e-39
-12.323416 15.406593 1.696665 7.8351838e-39
-12.086005 15.403226 1.7545308 8.8489882e-39
-11.640294 15.402056 1.7868035 1.5398115e-38
-11.415472 15.40329 1.7576362 1.5210851e-38
-11.264287 15.415353 1.7252352 1.5119376e-38
-11.060579 15.433892 1.7101579 1.567399e-38
-10.904147 15.447829 1.6977812 1.5213371e-38
-10.722271 15.465405 1.6736633 9.5869092e-39
-10.466298 15.494056 1.6912615 7.372042e-39
-10.256707 15.48497 1.6674756 1.0595261e-38
-10.13206 15.453306 1.7207609 1.6586532e-38
-9.8913574 15.428 1.7015818 1.0786522e-38
-9.7592936 15.436712 1.7043809 1.3088163e-38
-9.5280046 15.493813 1.7914596 1.3364031e-38
-9.2665482 15.575725 1.6293532 1.2441714e-38
-9.1842289 15.593506 1.6389292 1.2810858e-38
-8.833849 15.586011 1.784771 1.0691079e-38
-8.6086035 15.598404 1.6413517 1.1882382e-38
-8.5836182 15.597976 1.6539999 1.1974226e-38
-8.3869467 15.596766 1.6889701 1.3818849e-38
-8.0096445 15.594708 1.7356732 6.815969e-39
-7.9109883 15.598069 1.7282939 7.5538899e-39
-7.7704196 15.598353 1.7225759 7.6446394e-39
-7.5507746 15.596674 1.7570841 1.7136783e-38
-7.2855935 15.598006 1.6395879 1.7410117e-38
-9.0121861 15.663505 1.7154512 1.4012287e-38
-8.8946934 15.672124 1.6988062 1.3550591e-38
-8.7034206 15.66911 1.7003591 1.0231906e-38
-8.4988747 15.61257 1.6984091 1.1605084e-38
-8.2963543 15.61914 1.7023971 1.1144465e-38
-8.0112057 15.602861 1.681406 6.723409e-39
-7.8684216 15.607084 1.6998795 7.185106e-39
-7.6939383 15.620798 1.7023083 7.6453625e-39
-7.4427533 15.634814 1.7034013 8.6598648e-39
-7.3085041 15.639844 1.7009184 9.2123169e-39
-7.1042681 15.656548 1.7022476 1.0870396e-38
-6.8182077 15.678022 1.7091576 1.1791997e-38
-6.7026486 15.683313 1.6988053 1.1976387e-38
-6.4146347 15.711332 1.7350951 1.2068942e-38
-6.304934 15.715147 1.6971712 1.1699801e-38
-6.0096564 15.741621 1.7663431 1.1607608e-38
-5.9043865 15.746421 1.7007064 1.0778568e-38
-5.702035 15.757403 1.7013657 1.0042805e-38
-5.4843373 15.77311 1.7032013 8.9371845e-39
-5.3035407 15.782611 1.696947 8.3854471e-39
-5.0742378 15.798003 1.7019124 4.9789269e-39
-4.9655633 15.798211 1.701193 8.6660305e-39
-5.4457078 15.800664 1.6261858 8.0177436e-39
-5.2386661 15.803948 1.6933032 4.8859928e-39
-5.0799408 15.80256 1.7045654 5.2551565e-39
-4.9472637 15.804922 1.6991885 1.1892517e-38
-3.2070162 15.931046 1.7466108 1.1064187e-38
-3.0740352 15.926762 1.7059009 1.1340414e-38
-2.8816273 15.956054 1.6989865 8.7578478e-39
-2.6381774 15.971432 1.7061162 1.0784712e-38
-2.5059752 15.979661 1.6983286 1.0508842e-38
-2.2188947 15.92673 1.7030431 1.5118633e-38
-2.10044 15.935035 1.6987715 1.4382162e-38
-1.9038213 15.947515 1.6982697 1.3091424e-38
-1.7035058 15.958288 1.7013463 1.189288e-38
-1.5007025 15.965733 1.7011849 1.0970925e-38
-1.3009024 15.973367 1.7006932 1.0325553e-38
-1.1558703 15.978973 1.6938226 9.8649338e-39
-2.8197908 16.005232 1.7419225 1.1707732e-38
-2.6337059 16.003403 1.6873026 1.078543e-38
-2.4306808 16.004177 1.6595894 9.8641967e-39
-2.3898625 16.018074 1.6978023 9.9578427e-39
-2.0478125 16.004906 1.7524768 8.482714e-39
-1.8283291 16.003098 1.7004093 7.929543e-39
-1.6736014 16.00926 1.7026521 7.1923367e-39
-1.427297 16.00424 1.6498727 6.5473275e-39
-1.2687105 16.003927 1.6897475 6.4551318e-39
-1.0947959 16.008043 1.7013949 6.4547731e-39
-0.90249056 16.018057 1.6963838 6.6388014e-39
-0.71352822 16.025145 1.7036231 6.9153897e-39
-0.50611657 16.031502 1.7014052 7.3763693e-39
-0.28681293 16.041639 1.6982901 8.1139343e-39
-0.098936789 16.050001 1.6933405 8.8514993e-39
0.089693308 16.06711 1.7012328 9.7741759e-39
0.30259058 16.081251 1.7106651 1.0696492e-38
0.50163251 16.093683 1.6934438 1.1065276e-38
0.73177165 16.106155 1.6976519 1.1157833e-38
0.90867102 16.113543 1.7179585 1.1065638e-38
1.0891558 16.117292 1.6926602 1.0512824e-38
1.3013363 16.125914 1.7145545 9.6830649e-39
1.5155902 16.136621 1.706507 8.5767187e-39
1.7292072 16.140419 1.6917688 7.9306304e-39
1.8967159 16.148695 1.6600053 7.2852596e-39
2.1120024 16.165825 1.6846963 6.6398902e-39
2.2002511 16.188007 1.6225867 6.455499e-39
0.52475893 16.207521 1.6543243 1.0328073e-38
0.75825793 16.206522 1.679215 1.0051847e-38
0.90519136 16.209894 1.6785489 9.5901504e-39
1.1220527 16.211809 1.6971728 8.8522252e-39
1.3042938 16.228561 1.705759 7.9299102e-39
1.5132824 16.250038 1.6852304 6.8242815e-39
1.6579194 16.263968 1.6936543 6.3636635e-39
1.9264367 16.26775 1.7067866 6.3633033e-39
2.1078753 16.271061 1.6900967 6.3636635e-39
2.3090568 16.29834 1.6815137 6.7320859e-39
2.5025659 16.322788 1.6454595 6.732446e-39
2.6914852 16.324335 1.6668007 5.7175724e-39
2.877892 16.333504 1.6733692 4.7945301e-39
3.0203378 16.354792 1.6503677 6.0838186e-39
-12.475521 15.36014 1.8933237 7.650438e-39
-12.287922 15.358305 1.9022605 8.6645913e-39
-12.11781 15.359484 1.9130375 9.679102e-39
-11.912903 15.35617 1.8682952 1.152302e-38
-11.6661 15.377292 1.8693482 1.2998152e-38
-11.479081 15.387193 1.8242533 1.5303407e-38
-11.362667 15.379227 1.8952137 1.9638758e-38
-10.232135 15.390282 1.9054936 2.0367238e-38
-10.132948 15.398071 1.9527097 1.7511361e-38
-9.9346018 15.392091 1.9065589 1.6500472e-38
-12.333267 15.409422 1.9777977 7.0969055e-39
-12.066528 15.405692 1.9882637 8.2954487e-39
-11.825576 15.404358 1.976027 1.0139361e-38
-11.651987 15.415871 1.9285095 1.1247154e-38
-11.502771 15.421611 1.9368569 1.2444981e-38
-11.315715 15.427168 1.9057651 1.4380732e-38
-11.088728 15.436763 1.9043869 1.5858022e-38
-10.88139 15.453094 1.8979851 1.6965811e-38
-10.686301 15.470857 1.9157341 1.0141161e-38
-10.497042 15.482514 1.9003224 7.3727581e-39
-10.317799 15.489976 1.902228 7.553911e-39
-10.137661 15.461823 1.8917756 1.6859497e-38
-9.8953714 15.441796 1.914088 1.2901595e-38
-9.7391529 15.445721 1.8862361 1.2903415e-38
-9.5505962 15.490578 1.8046618 1.3271476e-38
-9.2121363 15.594181 1.8341715 1.3088524e-38
-9.1766825 15.59319 1.8298402 1.2903055e-38
-8.8467741 15.581807 1.8078058 1.0691078e-38
-8.6181898 15.595007 1.8543336 1.2159697e-38
-8.5709877 15.597439 1.9781705 1.2712514e-38
-8.3808708 15.598153 1.8782792 1.4740806e-38
-8.0182371 15.593496 1.9051559 7.1847557e-39
-7.9293385 15.597168 1.9121848 7.7386455e-39
-7.7841606 15.598501 1.8631036 7.1847431e-39
-7.5212979 15.597357 1.8851467 1.3819926e-38
-7.363368 15.597976 1.9428631 1.9530632e-38
-9.004509 15.665661 1.8651502 1.364315e-38
-8.8982935 15.673903 1.8985176 1.364279e-38
-8.7028427 15.670985 1.900195 1.0231909e-38
-8.4962044 15.614265 1.8994323 1.1974233e-38
-8.2934847 15.620301 1.8994443 1.19746e-38
-8.0205555 15.602907 1.9337041 7.3695043e-39
-7.8164973 15.611255 1.9809799 6.4479193e-39
-7.7052693 15.618125 1.9006979 8.0148667e-39
-7.4519072 15.631183 1.9062059 9.212684e-39
-7.2122011 15.649487 1.9161286 1.1701247e-38
-7.1043553 15.655025 1.8990605 1.1607966e-38
-6.8371463 15.676783 1.9081368 1.280579e-38
-6.7061872 15.681651 1.8976475 1.3451156e-38
-6.426589 15.70871 1.9105057 1.3635549e-38
-6.3034124 15.714407 1.8985411 1.3359321e-38
-6.0157681 15.73867 1.9184918 1.2345896e-38
-5.904695 15.745691 1.8993089 1.1977835e-38
-5.6041918 15.769727 1.9791377 1.2072206e-38
-5.5003209 15.771757 1.9025947 9.9513449e-39
-5.3065486 15.781554 1.8958466 8.7538765e-39
-5.0877776 15.79714 1.8939724 6.2685784e-39
-4.9633722 15.797623 1.891166 9.9553288e-39
-5.2363577 15.803135 1.9054346 5.5310049e-39
-5.109385 15.804531 1.9111693 5.8072401e-39
-4.9540963 15.805238 1.9076842 1.2353494e-38
-3.2103391 15.946772 1.890419 1.1064909e-38
-3.0731084 15.921623 1.8964878 1.1801394e-38
-2.8773944 15.953979 1.8986933 9.1266289e-39
-2.6519895 15.969753 1.9054248 1.1614473e-38
-2.5089974 15.976995 1.8978376 1.1245686e-38
-2.2234344 15.928963 1.8984358 1.622462e-38
-2.1040177 15.938286 1.8993566 1.6041324e-38
-1.9080777 15.95033 1.8989934 1.4842783e-38
-1.7061361 15.959817 1.902033 1.3275818e-38
-1.5109338 15.968358 1.8996432 1.1801048e-38
-1.3067539 15.97506 1.8992598 1.1247514e-38
-1.16198 15.980223 1.9019201 1.106348e-38
-2.8109884 16.002569 1.940416 1.2628974e-38
-2.6386542 16.003279 1.8993938 1.1614113e-38
-2.4717522 16.011593 1.9036467 1.0969107e-38
-2.3897631 16.014822 1.8886884 1.1524447e-38
-2.0514464 16.006176 1.8495498 9.220279e-39
-1.8070924 16.001455 1.9651413 1.0786884e-38
-1.6886897 16.00742 1.8954775 8.1139329e-39
-1.4525298 16.011402 1.9474872 8.3908799e-39
-1.2902495 16.002871 1.9102826 7.4682062e-39
-1.1057204 16.00841 1.8981555 7.5604018e-39
-0.90608263 16.016026 1.9007834 8.0217373e-39
-0.69109386 16.021763 1.897076 9.1277233e-39
-0.4901731 16.032866 1.900159 1.0049678e-38
-0.29705131 16.041925 1.9032745 1.1156027e-38
-0.10329521 16.050209 1.9007123 1.152553e-38
0.072386131 16.064577 1.8945537 1.2079064e-38
0.29002613 16.08012 1.8980026 1.2724437e-38
0.48464853 16.093569 1.8908011 1.309358e-38
0.71120042 16.09605 1.9128214 1.3278332e-38
0.92038918 16.108786 1.9034264 1.3277974e-38
1.0721693 16.121922 1.8824489 1.2263825e-38
1.3274137 16.118584 1.894088 1.1895041e-38
1.5068015 16.129972 1.8981669 1.1064564e-38
1.7023159 16.14954 1.8854799 9.2199315e-39
1.8944271 16.151201 1.9233661 9.7738214e-39
2.1165016 16.171913 1.8986315 8.482005e-39
2.2921555 16.183641 1.920527 8.4812861e-39
2.4188788 16.191126 1.8173515 7.0068749e-39
2.6699703 16.195147 1.8784384 7.7433623e-39
0.57742494 16.203768 1.9374042 1.3830786e-38
0.69516402 16.20429 1.9163795 1.2724442e-38
0.90335917 16.203466 1.9436315 1.3185416e-38
1.1067388 16.204384 1.9236853 1.1802122e-38
1.3212657 16.21117 1.9001325 9.5890728e-39
1.4969081 16.231394 1.8981495 8.2057782e-39
1.6718308 16.245579 1.9282223 8.1132196e-39
1.8850825 16.26265 1.9052833 7.5586067e-39
2.1598489 16.218103 1.8370287 7.0983516e-39
2.3066797 16.248831 1.9023418 7.4671328e-39
2.5013494 16.221851 1.8527894 7.2834618e-39
2.6737189 16.219236 1.8487375 7.3760189e-39
-12.463333 15.380887 2.0551291 7.0969055e-39
-12.326048 15.390972 2.0487547 7.4656894e-39
-12.145098 15.380093 2.1042843 8.1117763e-39
-11.896411 15.3761 2.0518515 1.0139724e-38
-11.621696 15.39969 2.0061183 1.5673254e-38
-11.510806 15.38265 2.0879896 1.4287458e-38
-11.365221 15.393046 2.0561841 1.5579638e-38
-12.32649 15.406527 2.0560863 7.2812968e-39
-12.091421 15.414849 2.0371816 7.8348321e-39
-11.823139 15.405752 2.006145 9.8627744e-39
-11.664761 15.409972 2.0171623 1.2722281e-38
-11.505917 15.423445 2.0678742 1.2259509e-38
-11.321322 15.436903 2.1060541 1.308999e-38
-11.111378 15.445833 2.1032224 1.4843147e-38
-10.921463 15.462917 2.112767 1.6041333e-38
-10.700417 15.487299 2.0971801 1.4198134e-38
-10.495131 15.500497 2.0989664 7.6507883e-39
-10.301156 15.507971 2.0931768 7.9234152e-39
-10.122902 15.472486 2.1082635 1.5200706e-38
-9.9109821 15.43471 2.064189 1.2623941e-38
-9.7285643 15.446942 2.0647175 1.2995987e-38
-8.6176901 15.597236 2.101058 1.2713611e-38
-8.5598335 15.599118 2.0919523 1.3728129e-38
-8.3757467 15.598468 2.12219 1.6400346e-38
-8.029562 15.590146 2.1073098 1.4840621e-38
-7.8092699 15.596318 2.1637659 1.0047519e-38
-7.790834 15.599228 2.1278729 5.5277791e-39
-7.547245 15.598021 2.0610147 9.6754656e-39
-7.330719 15.596334 2.1311462 2.230809e-38
-7.1924171 15.595123 2.1351802 2.341769e-38
-9.0469427 15.640472 2.0793846 1.3180009e-38
-8.8936949 15.67504 2.1004429 1.3181816e-38
-8.6981335 15.671948 2.0979257 9.6783747e-39
-8.4958668 15.612626 2.0993552 1.5205062e-38
-8.2959633 15.62001 2.0989249 1.7603959e-38
-8.0237141 15.602112 2.101567 1.5578545e-38
-7.8073101 15.607551 2.1079345 9.6769356e-39
-7.7122941 15.619781 2.0996287 1.2073662e-38
-7.4673438 15.63147 2.1026571 1.1334281e-38
-7.2264504 15.648464 2.1104298 1.2070754e-38
-7.1055126 15.657584 2.0988693 1.1977474e-38
-6.8540173 15.676836 2.1054578 1.3820669e-38
-6.7087879 15.68541 2.0997014 1.3543714e-38
-6.4422283 15.709618 2.1042578 1.4650065e-38
-6.3064013 15.718189 2.0987816 1.3266408e-38
-6.0334496 15.73925 2.1104476 1.1884558e-38
-5.9079814 15.748877 2.0989509 1.2344821e-38
-5.6114511 15.763594 2.1183035 1.0317964e-38
-5.5108418 15.775075 2.1016698 1.1057334e-38
-5.2066312 15.794567 2.1237478 9.3070545e-39
-5.1547785 15.795395 2.1005707 8.9397209e-39
-4.9778185 15.798341 2.0383348 9.4028738e-39
-5.2084217 15.801471 2.0937133 7.9248445e-39
-5.1012807 15.806926 2.1035726 7.2820128e-39
-4.9667568 15.808174 2.0944078 9.2188427e-39
-3.0692618 15.921691 2.0582988 1.0140432e-38
-2.9013681 15.949916 2.0737607 8.4812623e-39
-2.6548536 15.966164 2.0547888 1.1706669e-38
-2.5105789 15.977398 2.083926 1.1061295e-38
-2.2349672 15.934338 2.1030786 1.5394141e-38
-2.106653 15.941554 2.0999529 1.4749504e-38
-1.9097173 15.953037 2.0981874 1.5302317e-38
-1.7042471 15.961342 2.0983703 1.7053669e-38
-1.5112048 15.969151 2.1027029 1.806818e-38
-1.3066989 15.97679 2.098393 1.6962197e-38
-1.1716292 15.984408 2.098784 1.5487788e-38
-3.0167353 16.000174 2.0749133 7.6504184e-39
-2.8304815 16.009111 2.0395455 1.2537499e-38
-2.6555424 16.004917 2.1114807 1.1338242e-38
-2.4841619 16.011335 2.0967693 1.0600683e-38
-2.3871515 16.010044 2.0574343 9.5879826e-39
-2.0951266 16.009741 2.095042 1.235385e-38
-1.8121662 16.00071 2.0892925 1.2075454e-38
-1.6716498 16.003777 2.0968542 1.2168011e-38
-1.4454248 16.004908 2.0351422 1.1340058e-38
-1.2482406 16.003046 2.0840609 1.1339698e-38
-1.0978743 16.008238 2.1032026 1.0695049e-38
-0.90521461 16.016268 2.1007242 8.9444124e-39
-0.7096945 16.01948 2.0997083 7.9299046e-39
-0.51010746 16.029348 2.1052241 7.9299046e-39
-0.30500329 16.037405 2.0985878 8.8518595e-39
-0.107961 16.048908 2.1067905 1.0326985e-38
0.069633439 16.06715 2.0880239 1.3277243e-38
0.27989137 16.079386 2.0879176 1.5489938e-38
0.49101835 16.093845 2.1021864 1.576617e-38
0.69021416 16.104284 2.0897393 1.6136033e-38
0.91827404 16.10297 2.1043873 1.5767609e-38
1.0942738 16.117386 2.1131432 1.512296e-38
1.3133014 16.125454 2.0946617 1.3002469e-38
1.5070043 16.139513 2.0845447 1.2079793e-38
1.6887846 16.151159 2.1047831 1.1895398e-38
1.8895649 16.153923 2.0853765 1.2079427e-38
2.0931408 16.167065 2.0958538 1.1618447e-38
2.285491 16.192905 2.0181632 1.3924058e-38
2.465085 16.188545 2.0213366 1.2448572e-38
0.39482734 16.213068 2.1319413 1.8439119e-38
0.55058992 16.205818 2.1171753 1.5858004e-38
0.69044077 16.205332 2.1191525 1.6042757e-38
0.86952519 16.21207 2.1239555 1.4015538e-38
1.1230549 16.219139 2.1304147 1.1803564e-38
1.3066738 16.211517 2.064348 1.281663e-38
1.4946473 16.22665 2.0857322 1.2170901e-38
1.6624026 16.24299 2.0979309 1.1801758e-38
1.8576571 16.257339 2.1205091 1.1617367e-38
2.0784354 16.264101 2.0913908 1.2355292e-38
2.2937546 16.243484 2.054759 1.337016e-38
2.5192719 16.231237 2.049299 1.2817713e-38
2.7158895 16.2799 2.1597311 1.5585022e-38
2.9193997 16.264492 2.1477444 1.4571595e-38
-12.078923 15.386909 2.2851653 8.2954501e-39
-11.910323 15.358126 2.3425083 9.9546183e-39
-11.753892 15.375211 2.3513904 1.0691102e-38
-11.484147 15.383007 2.2994068 1.6226071e-38
-11.3496 15.393305 2.3588586 1.4933897e-38
-11.118106 15.380228 2.2694647 8.7593107e-39
-10.903698 15.399869 2.265949 9.4979449e-39
-12.040215 15.403382 2.2994385 8.2950886e-39
-11.68047 15.403039 2.3397028 1.0230485e-38
-11.501852 15.423649 2.3239453 1.115244e-38
-11.322232 15.437598 2.2927017 1.2074396e-38
-11.133839 15.457379 2.2846134 1.3088547e-38
-10.882638 15.480766 2.2937706 1.4379643e-38
-10.700053 15.496962 2.2940865 1.4749507e-38
-10.46808 15.516729 2.3115585 1.0047175e-38
-10.280667 15.500147 2.3031812 7.9248697e-39
-10.108951 15.506051 2.3008704 8.6617047e-39
-9.9001122 15.509432 2.2954049 1.0043917e-38
-9.6992292 15.544941 2.3359461 1.0600345e-38
-9.5152607 15.550682 2.3353932 1.0229759e-38
-9.2611504 15.567013 2.3005652 1.1889629e-38
-9.1701269 15.591359 2.3064725 1.2810864e-38
-8.8382339 15.564973 2.290426 9.4932534e-39
-8.615983 15.596127 2.348366 9.860615e-39
-8.5210981 15.597009 2.3611922 1.2257348e-38
-8.3701401 15.597783 2.3776839 1.3271503e-38
-8.029604 15.584483 2.2256575 7.6507995e-39
-7.8095374 15.593783 2.2196026 5.6232104e-39
-7.7654891 15.59561 2.2369592 6.1753093e-39
-7.5091286 15.599216 2.266418 6.637012e-39
-7.2762437 15.596642 2.3823471 7.9277452e-39
-7.1063046 15.594043 2.3651032 1.4842786e-38
-6.999743 15.595037 2.3980751 1.8162906e-38
-12.269444 15.661849 2.3095026 3.8704228e-39
-12.135272 15.671007 2.315171 5.3455501e-39
-9.0326872 15.638772 2.2544055 1.20733e-38
-8.8916817 15.676027 2.2661347 1.1059513e-38
-8.7007341 15.67284 2.2976537 7.5571522e-39
-8.4920826 15.611436 2.2963555 1.6407582e-38
-8.2950211 15.615852 2.2975695 1.7053317e-38
-8.0208216 15.602881 2.23927 7.46713e-39
-7.807992 15.610189 2.2217095 5.8998028e-39
-7.687922 15.617448 2.2475276 7.2823744e-39
-7.4675713 15.629166 2.2395084 8.7564226e-39
-7.2272234 15.642683 2.2350709 9.3085048e-39
-7.0976791 15.659512 2.2620323 7.8348181e-39
-6.8540349 15.673825 2.2366686 8.3861842e-39
-6.6970401 15.687826 2.2705579 8.1114078e-39
-6.4406161 15.704154 2.2333641 1.0228646e-38
-6.2955689 15.720995 2.2652366 7.5575067e-39
-6.0316453 15.736374 2.2362559 7.7397302e-39
-5.895102 15.7528 2.2645066 6.6351959e-39
-5.6123366 15.758088 2.2280791 7.554976e-39
-5.4958825 15.777888 2.2536819 5.2519013e-39
-5.2925467 15.785476 2.2966559 5.6221285e-39
-5.1741929 15.792683 2.2214999 5.619595e-39
-4.9777141 15.7945 2.339571 8.665306e-39
-5.2152157 15.801873 2.289645 5.4370198e-39
-5.0723705 15.808949 2.2468891 5.4373842e-39
-4.977849 15.813948 2.2547264 8.2046908e-39
-3.0069151 15.961673 2.3406827 7.4187263e-40
-2.9947333 15.962748 2.2714024 1.6627513e-39
-2.61673 15.997494 2.2312932 1.0416277e-38
-2.4470866 15.983715 2.2005696 1.004714e-38
-2.235218 15.936584 2.2797565 1.3642784e-38
-2.1042001 15.943612 2.2983341 1.207655e-38
-1.9100479 15.954465 2.2986162 1.0878011e-38
-1.708847 15.964801 2.298527 1.0140446e-38
-1.5037962 15.972446 2.3022492 1.0416671e-38
-1.2999775 15.981291 2.2999864 1.1707409e-38
-1.180638 15.988434 2.2893929 1.2998505e-38
-3.057642 16.000214 2.2470212 2.9542104e-39
-2.6337481 16.007414 2.2139001 1.0508479e-38
-2.4415143 16.015598 2.2134039 8.8500448e-39
-2.38974 16.012634 2.2303131 8.0210142e-39
-2.0816128 16.012159 2.2598155 1.0601413e-38
-1.8531466 16.002941 2.351671 5.4395366e-39
-1.6707674 16.004559 2.3011663 5.9005161e-39
-1.5025665 16.01265 2.2949338 6.4536899e-39
-1.2199234 16.001282 2.3401706 8.3894422e-39
-1.0964099 16.006102 2.2961037 7.5603962e-39
-0.90943849 16.014534 2.2989316 7.9295388e-39
-0.70614237 16.022074 2.2985928 8.0217387e-39
-0.49107176 16.029587 2.3005681 7.7458734e-39
-0.30046842 16.040482 2.3045368 7.6536792e-39
-0.097993225 16.050591 2.2905471 8.0224603e-39
0.10501484 16.066647 2.3038628 8.3912429e-39
0.28791448 16.073797 2.3012583 8.852221e-39
0.47582072 16.082382 2.2985766 9.2213623e-39
0.66549981 16.100754 2.3019259 9.1302456e-39
0.89106542 16.11285 2.3068509 9.314281e-39
1.0681411 16.13061 2.2935464 9.2224455e-39
1.3234117 16.13306 2.2687237 1.1249665e-38
1.4786823 16.13452 2.2819157 1.0512104e-38
1.6752461 16.142944 2.2913287 1.0419912e-38
1.8840247 16.150215 2.2803082 1.0788696e-38
2.0989044 16.166874 2.2519491 1.0144769e-38
2.2656322 16.183632 2.2773759 9.683432e-39
0.50324482 16.202963 2.2149644 1.1341504e-38
0.74764967 16.204977 2.3076382 8.2072159e-39
0.887043 16.209486 2.301429 9.4975918e-39
1.1062375 16.212257 2.3224771 8.9444194e-39
1.312995 16.217474 2.3154233 9.5901476e-39
1.47314 16.238024 2.3084114 9.7741801e-39
1.7005218 16.241041 2.2920017 9.4064794e-39
1.8666894 16.25663 2.2803297 9.038057e-39
2.1286469 16.224361 2.2400446 8.9465858e-39
2.2582891 16.281176 2.2536454 8.3004906e-39
2.5229459 16.319214 2.3253284 4.1498865e-39
-12.04876 15.384451 2.4541445 8.9408167e-39
-11.899165 15.378718 2.4919341 9.8613395e-39
-11.774259 15.396076 2.5798533 1.0414869e-38
-11.466825 15.38978 2.4182382 1.2811961e-38
-11.333757 15.387101 2.4594619 1.6778889e-38
-12.025392 15.435922 2.5021617 8.5716768e-39
-11.898167 15.41303 2.5316091 9.5847512e-39
-11.709683 15.420555 2.5080025 1.0045731e-38
-11.49998 15.429872 2.4700272 1.0875491e-38
-11.307112 15.437593 2.4585643 1.1982198e-38
-11.090568 15.462839 2.4829133 1.2627566e-38
-10.916506 15.47884 2.475533 1.3365132e-38
-10.680094 15.502035 2.5014889 1.4010507e-38
-10.484807 15.49754 2.5012357 1.4932826e-38
-10.299998 15.502357 2.4918153 1.5302326e-38
-10.085865 15.517331 2.5010083 1.5209769e-38
-9.8760033 15.530758 2.5087376 1.4840631e-38
-9.6831474 15.532799 2.5054059 1.4559001e-38
-9.5207596 15.549767 2.4237697 1.4100889e-38
-9.3429346 15.542555 2.4232848 1.437855e-38
-8.8350868 15.572037 2.5659637 8.6649375e-39
-8.6139574 15.595101 2.453419 9.0315774e-39
-8.5017147 15.596285 2.4942229 9.7691466e-39
-8.3269138 15.598006 2.5244424 9.3081685e-39
-8.1415653 15.597879 2.5586572 9.3085286e-39
-7.9502645 15.59431 2.5141985 1.5025367e-38
-7.6537032 15.579307 2.4540033 1.0048243e-38
-7.5760207 15.597331 2.4155617 6.8221109e-39
-7.2822213 15.596457 2.4150472 7.8359069e-39
-7.07058 15.597885 2.5445478 8.3887275e-39
-6.9692807 15.597439 2.5032003 1.6962927e-38
-6.7087121 15.599552 2.5924375 1.7054765e-38
-12.059287 15.668552 2.4942267 8.5723943e-39
-9.0072708 15.6477 2.5894687 7.0036197e-39
-8.8389082 15.684617 2.5287256 7.1836907e-39
-8.7534046 15.682666 2.4138799 6.3571741e-39
-8.4982853 15.610779 2.5081489 9.2156127e-39
-8.2888813 15.609525 2.4947746 9.4003641e-39
-8.109046 15.614396 2.4810827 9.0319431e-39
-7.9251466 15.626509 2.4450924 9.031583e-39
-7.6176548 15.606578 2.4103277 6.176024e-39
-7.4136949 15.630176 2.4075973 6.2685756e-39
-7.2780762 15.635592 2.4369733 6.5448037e-39
-7.0705075 15.64592 2.4280484 8.0206555e-39
-6.8562536 15.667514 2.4180856 8.5741894e-39
-6.6893091 15.672956 2.4564698 8.3890806e-39
-6.4605231 15.694972 2.4243083 8.4816364e-39
-6.2955465 15.703288 2.4632292 7.7444301e-39
-6.0536981 15.726787 2.4218247 7.5600402e-39
-5.8976455 15.736289 2.4538155 6.9143135e-39
-5.6436067 15.760311 2.4239082 6.2689497e-39
-5.485003 15.769696 2.4602413 5.7154116e-39
-5.2347369 15.789451 2.4156883 5.5303015e-39
-5.1141386 15.796338 2.4327886 6.1749478e-39
-4.9642315 15.797275 2.4329755 8.3894366e-39
-4.6650014 15.736974 2.5383298 8.2968864e-39
-4.5005164 15.748974 2.5501587 8.2972424e-39
-4.3347335 15.754781 2.5609312 8.2050467e-39
-5.07267 15.805439 2.4520371 6.8206731e-39
-4.9713001 15.802923 2.4310331 8.3897967e-39
-4.6112876 15.812482 2.5526757 8.1128497e-39
-4.4958563 15.821671 2.5622532 8.2043279e-39
-4.350688 15.815904 2.5650675 8.2965263e-39
-3.2220974 15.960881 2.4394703 3.2275715e-39
-3.0111234 15.958521 2.4534934 5.578401e-40
-2.9692409 15.966803 2.4881623 2.3063187e-39
-2.0383286 15.945938 2.414259 1.0785089e-38
-1.8960896 15.956784 2.4396431 9.587628e-39
-1.6974902 15.967299 2.4747529 8.389445e-39
-1.5072736 15.982969 2.501519 7.7440756e-39
-1.3228786 15.990904 2.4618974 7.8366327e-39
-1.1880411 15.993896 2.437325 8.0206653e-39
-0.92001307 15.997104 2.5873494 3.5952638e-39
-2.8939455 16.002913 2.5556769 4.8845495e-39
-1.8404325 16.003435 2.4222617 4.9774794e-39
-1.6835027 16.007582 2.4486465 4.5175789e-39
-1.418734 16.001818 2.5687985 6.7295607e-39
-1.2887483 16.004385 2.5160239 7.2834576e-39
-1.0725615 16.0054 2.4854176 4.2409962e-39
-0.90078753 16.012075 2.4974663 4.3331918e-39
-0.69804299 16.021812 2.5021105 4.6101374e-39
-0.49925807 16.033607 2.4984088 4.9792773e-39
-0.29903194 16.043814 2.5068157 5.1640301e-39
-0.11563572 16.058502 2.4903963 5.8086848e-39
0.087548427 16.072737 2.5006092 5.9934348e-39
0.30032441 16.080524 2.5083995 6.085629e-39
0.50014436 16.086084 2.4968605 6.5473261e-39
0.72036844 16.096136 2.5010087 6.4558507e-39
0.90805072 16.112232 2.4901152 6.3636593e-39
1.0725538 16.130705 2.5105231 5.7179297e-39
1.3114417 16.136969 2.4980114 5.4417044e-39
1.4550077 16.136333 2.4790471 5.4420645e-39
1.6120229 16.158451 2.5012536 5.0732834e-39
2.1403806 16.160051 2.4040565 7.1923493e-39
0.19319554 16.203941 2.5919206 6.9150254e-39
0.3241643 16.203875 2.5944459 7.0068651e-39
0.51350629 16.204237 2.4828756 5.8097638e-39
0.64077169 16.20439 2.5167906 5.4409813e-39
0.88245535 16.208107 2.4940889 5.901965e-39
1.122303 16.213917 2.5011306 5.256953e-39
1.2773287 16.221472 2.5168715 5.0722016e-39
1.5026015 16.235113 2.4869862 5.3484283e-39
1.7438875 16.25816 2.5102885 4.8881733e-39
1.9026843 16.275244 2.5042312 5.1647629e-39
2.1487119 16.292286 2.5678656 5.1654846e-39
2.2229838 16.276869 2.5172219 4.9807318e-39
2.5091517 16.290615 2.5304575 4.0584126e-39
-12.027521 15.388059 2.6631658 9.7694984e-39
-11.885498 15.391515 2.6648984 1.0046089e-38
-12.026803 15.407088 2.6589921 9.4929115e-39
-11.883452 15.408667 2.7031343 9.9535351e-39
-11.726627 15.417507 2.7100518 1.032232e-38
-11.48491 15.435326 2.6791716 1.0875494e-38
-11.287191 15.44928 2.6616452 1.1520864e-38
-11.064898 15.471268 2.6445875 1.2074037e-38
-10.923841 15.468133 2.6426549 1.3087829e-38
-10.680064 15.483599 2.6431987 1.345697e-38
-10.514267 15.492729 2.6393816 1.3733916e-38
-10.315956 15.505409 2.6377811 1.3642799e-38
-10.109678 15.519614 2.6449659 1.3273657e-38
-9.8808508 15.529857 2.6469398 1.2811597e-38
-9.6844978 15.535415 2.6552153 1.2991305e-38
-9.4766417 15.54539 2.6654899 8.470845e-39
-9.2283459 15.585039 2.7040801 7.927378e-39
-9.183774 15.582935 2.6522973 9.2152442e-39
-8.8893185 15.552965 2.6187942 8.8482441e-39
-8.6259489 15.595326 2.6431122 7.5568032e-39
-8.4904404 15.596632 2.6638992 7.7404784e-39
-8.3391132 15.596962 2.6340833 8.1099826e-39
-8.146965 15.596652 2.6495161 1.1153871e-38
-7.9702864 15.591125 2.6328242 1.2167298e-38
-7.7008681 15.558756 2.6550241 1.1614496e-38
-7.4994564 15.571466 2.6509256 1.2259506e-38
-7.3005171 15.579093 2.6505044 1.3181463e-38
-7.0670714 15.595223 2.6204672 7.3745686e-39
-6.9208937 15.597383 2.6472287 1.4841707e-38
-6.703691 15.596638 2.6677809 1.5302685e-38
-12.04761 15.665322 2.6651931 9.0340983e-39
-11.900693 15.668906 2.7105064 9.7709445e-39
-11.727368 15.667887 2.7032418 1.0416314e-38
-11.538014 15.659128 2.7209766 1.0969123e-38
-11.285099 15.663895 2.7248178 1.1245714e-38
-11.062342 15.659214 2.7059443 1.1429024e-38
-10.87986 15.65661 2.7067301 1.1705608e-38
-10.717509 15.655382 2.707258 1.1613419e-38
-10.523088 15.656748 2.6965714 1.1521228e-38
-10.301925 15.65403 2.6958449 1.1429748e-38
-10.095841 15.648904 2.706182 1.1244638e-38
-9.9007349 15.650996 2.710309 1.0784735e-38
-9.7034292 15.646871 2.7103727 1.0507065e-38
-9.4894457 15.648248 2.7103198 9.9538994e-39
-9.2919569 15.640651 2.7185082 9.2163288e-39
-9.0893612 15.640994 2.7015808 7.5564375e-39
-8.8933573 15.667283 2.6611083 6.4490053e-39
-8.6799459 15.670559 2.6405706 6.4486466e-39
-8.5256977 15.620811 2.6744428 7.0951062e-39
-8.317277 15.606745 2.6330013 7.9255928e-39
-8.0892239 15.628646 2.6623487 8.0170653e-39
-7.9191847 15.627218 2.650048 8.3858493e-39
-7.7661486 15.623693 2.6115346 8.8468274e-39
-7.5109968 15.644467 2.6565819 1.106096e-38
-7.3643732 15.642575 2.621479 1.207583e-38
-7.0309725 15.628265 2.6140184 3.594538e-39
-6.8667483 15.659737 2.61659 5.7143242e-39
-6.6399941 15.657528 2.6219778 4.3321086e-39
