# .PCD v0.7 - Point Cloud Data file format
VERSION 0.7
FIELDS x y z rgb
SIZE 4 4 4 4
TYPE F F F F
COUNT 1 1 1 1
WIDTH 554
HEIGHT 1
VIEWPOINT 0 0 0 1 0 0 0
POINTS 554
DATA ascii
8.4696932 -3.2962391 0.14420664 1.935402e-39
8.3840179 -3.4104285 0.35414842 6.7230391e-39
8.4141035 -3.4625988 0.35399547 6.7233936e-39
8.3756771 -3.3001504 0.35761824 3.4094418e-39
8.4714108 -3.2650757 0.29580998 3.6880074e-40
8.4494686 -3.1816056 0.39067304 1.8477381e-40
8.65979 -3.1003203 0.34567928 6.4866666e-40
8.5592098 -2.977077 0.3882646 1.1103707e-39
8.4440937 -2.4272025 0.29581842 2.311453e-39
8.3820658 -2.287003 0.3636972 2.4040088e-39
8.4099512 -2.2494736 0.36563134 2.4047291e-39
8.3857069 -2.1221361 0.38037834 2.4969247e-39
8.4140568 -2.0526197 0.33309814 2.5887602e-39
8.3962278 -1.9184295 0.37557527 2.9579042e-39
8.4118795 -1.9010363 0.31013682 2.9575441e-39
8.3986588 -1.7742234 0.34606305 3.2341324e-39
8.4151344 -1.7807717 0.34015924 3.1419368e-39
8.394702 -1.5329992 0.37429097 1.2018503e-39
8.4156523 -1.500145 0.36709166 8.297915e-40
8.3762484 -3.4104254 0.43249169 7.0914601e-39
8.3549452 -3.2663283 0.50035244 4.9774906e-39
8.4369459 -3.2320492 0.45056677 2.6766062e-39
8.3882427 -3.1955056 0.56644207 6.2689847e-39
8.4483471 -3.1212265 0.50829923 5.2577251e-39
8.3964367 -2.802479 0.58271915 1.650195e-38
8.4438 -2.8859496 0.50867683 5.3506466e-39
8.3972406 -2.72649 0.58046359 1.7424625e-38
8.4547691 -2.7058053 0.51661903 5.9041777e-39
8.3952017 -2.5873311 0.58962518 1.4940015e-38
8.4423885 -2.5095947 0.51301485 3.9702359e-39
8.3823204 -2.2861085 0.51282877 2.4043689e-39
8.4112396 -2.2667763 0.47377151 2.4043703e-39
8.3801355 -2.0810461 0.51226282 2.5891189e-39
8.4108906 -2.1259854 0.47264928 2.4969247e-39
8.3860521 -1.9018719 0.50233817 3.1422955e-39
8.408515 -1.8937089 0.50564575 3.2348513e-39
8.3833227 -1.6947079 0.53516048 3.5114396e-39
8.4101992 -1.7543402 0.49252784 3.4196041e-39
8.1944513 -1.4162676 0.59378308 8.3912471e-39
8.2527485 -1.5246232 0.5503338 8.2068572e-39
8.4403238 -1.4721787 0.52705705 4.8871041e-39
8.1976337 -1.3915193 0.5939976 8.3912443e-39
8.258791 -1.2762337 0.56570327 8.4827154e-39
8.4337692 -1.3074727 0.55601019 8.8504245e-39
8.273819 -1.0806903 0.54381245 7.7451476e-39
8.4096479 -1.1042048 0.53097183 8.7578632e-39
8.2850037 -0.95431954 0.53896856 7.9288158e-39
8.4054308 -0.93248755 0.54273206 8.6649459e-39
8.2840214 -0.69619828 0.54002672 8.1132126e-39
8.4030752 -0.74251264 0.56610757 8.4801917e-39
8.2855606 -0.50631326 0.55169839 8.021017e-39
8.4008894 -0.59126222 0.59371078 8.4801931e-39
8.2416563 -0.22010024 0.58146036 7.8344677e-39
8.2567558 -0.083025128 0.57637376 7.7426308e-39
8.2676497 0.15004256 0.5732888 7.5582396e-39
8.2696609 0.29876003 0.57098818 7.0979803e-39
8.2687283 0.49993446 0.56794965 7.3738511e-39
8.2692537 0.70417571 0.56469494 7.18982e-39
8.2716999 0.84975749 0.56446242 5.7150529e-39
8.3413763 -3.2496352 0.61816418 7.1938165e-39
8.438159 -3.2120593 0.68524945 7.3782148e-39
8.3890057 -3.1484051 0.72715485 5.4428324e-39
8.4342632 -3.0893857 0.69672728 5.3510039e-39
8.3837624 -2.8845739 0.6849075 2.5833526e-39
8.4361286 -2.8920305 0.70231307 4.89003e-39
8.4541502 -2.7070222 0.70150995 4.8903915e-39
8.395853 -2.5782478 0.65384239 1.2987402e-39
8.4391136 -2.4984074 0.6952436 3.5092633e-39
8.3842554 -2.2790778 0.68734163 2.3121719e-39
8.4104662 -2.2806859 0.71871841 2.3121705e-39
8.3872948 -2.0833917 0.6815238 2.4050878e-39
8.4100266 -2.1198394 0.72452772 2.4047277e-39
8.3878613 -1.9277376 0.66480148 2.9579e-39
8.4169073 -1.8944968 0.71163183 2.9579028e-39
8.3164968 -1.6104106 0.74487203 7.8369929e-39
8.4052801 -1.7077967 0.66576248 3.3270483e-39
8.1923246 -1.4417607 0.65569896 8.29905e-39
8.2445793 -1.4697232 0.71314806 8.3908855e-39
8.45331 -1.4638861 0.69749296 6.3615083e-39
8.1977577 -1.3803103 0.61029649 8.4834399e-39
8.2677603 -1.3068144 0.69712555 8.574911e-39
8.4334793 -1.2983357 0.70052624 8.8507805e-39
8.2725725 -1.1024643 0.69835633 8.1139287e-39
8.4113646 -1.0939223 0.69911045 8.8500588e-39
8.2878151 -0.90511614 0.69869 8.1139273e-39
8.4061031 -0.90894443 0.70944417 8.5734677e-39
8.2718668 -0.70132095 0.701989 8.2057656e-39
8.4059162 -0.72725332 0.7169134 8.5723859e-39
8.1984673 -0.40379077 0.76809031 5.9909069e-39
8.2307968 -0.4208186 0.74377769 5.7146801e-39
8.4102058 -0.49738219 0.75440317 8.5716684e-39
8.194046 -0.37506413 0.74674994 4.7920134e-39
8.246912 -0.27921581 0.72797334 7.5582368e-39
8.4060516 -0.32733586 0.77500981 8.2043208e-39
8.2659979 -0.10434598 0.70285749 7.8348251e-39
8.2672968 0.10718866 0.71252769 7.6507939e-39
8.2553024 0.29927674 0.70087069 7.1901759e-39
8.2588053 0.49875462 0.70204252 7.2823744e-39
8.2613201 0.69929886 0.69970888 7.1905375e-39
8.2679482 0.85784197 0.70976168 6.1767457e-39
8.569252 -3.4917696 0.94656563 4.8882069e-39
8.6200714 -3.5095937 0.93833977 7.8384628e-39
8.4631386 -3.2664208 0.8807798 7.1934662e-39
8.3930645 -3.115411 0.91381311 4.7981917e-39
8.4271517 -3.0770352 0.89882666 5.5343176e-39
8.3967466 -2.874356 0.90664512 7.5611655e-39
8.4411831 -2.9001694 0.89764082 5.1662567e-39
8.396987 -2.7527225 0.96496826 1.757196e-39
8.4592695 -2.7047424 0.89876366 5.1662567e-39
8.3944025 -2.474874 0.87915945 1.2266367e-38
8.4443521 -2.4966993 0.90366209 2.7713396e-39
8.3853121 -2.2652137 0.89136356 2.1284995e-39
8.4128141 -2.3086691 0.90590745 2.1281394e-39
8.3910255 -2.0733359 0.90081167 2.3118062e-39
8.4144754 -2.1103139 0.90173757 2.2196091e-39
8.3928289 -1.9500492 0.89619762 2.4047249e-39
8.419096 -1.898645 0.8991164 2.4047291e-39
8.2980423 -1.6084585 0.9299475 7.6529575e-39
8.4073925 -1.7122704 0.90434885 2.4969247e-39
8.2562284 -1.4849148 0.89911139 8.4823581e-39
8.4476461 -1.4694965 0.90225959 5.8086932e-39
8.2697344 -1.304458 0.89985907 8.5749082e-39
8.4298124 -1.2979027 0.89695007 8.9426132e-39
8.259654 -1.0996406 0.90051764 8.3901568e-39
8.409071 -1.0943878 0.8894493 9.0340871e-39
8.2662325 -0.90627873 0.89812189 8.1135672e-39
8.4072561 -0.89843518 0.8841083 8.5727474e-39
8.2531242 -0.70008308 0.90125096 8.2979612e-39
8.4059105 -0.75123149 0.8856445 8.6645829e-39
8.2350874 -0.4234294 0.90486747 6.0831067e-39
8.4059734 -0.48970792 0.88438845 8.4801917e-39
8.254097 -0.30405718 0.89832085 7.09726e-39
8.4047976 -0.29997447 0.85011232 7.5585941e-39
8.2630787 -0.10204549 0.89929104 7.9273794e-39
8.2501173 0.099584043 0.90014273 7.7429896e-39
8.2381372 0.29883185 0.90032196 7.1901745e-39
8.2519398 0.49902323 0.9002015 7.2830918e-39
8.2573404 0.69831133 0.89893663 7.2830918e-39
8.2759733 0.86764312 0.89945656 6.8221179e-39
8.763401 -3.8206334 1.1502644 1.0239853e-38
8.5990458 -3.6047423 1.1153761 8.0257141e-39
8.6847448 -3.6931632 1.1507328 6.5513296e-39
8.5830088 -3.5027127 1.0774232 4.0580861e-39
8.616868 -3.5250158 1.109306 6.8235878e-39
8.4872885 -3.2712424 1.1007894 8.0239289e-39
8.3959227 -3.1314001 1.0867078 1.7525171e-39
8.428503 -3.081759 1.0968398 7.4689699e-39
8.3862371 -2.9699159 1.0526954 1.0787274e-38
8.4463158 -2.8934498 1.0998914 7.4693258e-39
8.4738016 -2.6946185 1.099703 7.1001817e-39
8.4490986 -2.4932652 1.0942281 3.9698715e-39
8.386693 -2.2407994 1.1111213 2.3121677e-39
8.4183855 -2.3246753 1.0942211 2.311809e-39
8.3936644 -2.1608267 1.1192683 2.3114418e-39
8.4215097 -2.0994401 1.1020737 2.3110803e-39
8.3962975 -1.9410763 1.0708482 2.4969205e-39
8.423152 -1.9035311 1.1003458 2.5891161e-39
8.2820711 -1.6077693 1.1054636 7.7444301e-39
8.4101601 -1.6864468 1.1118736 2.4050878e-39
8.2672892 -1.4907852 1.1010184 8.6663864e-39
8.4553308 -1.483254 1.0985285 5.7175822e-39
8.2627697 -1.3013173 1.0977943 8.7592967e-39
8.4272871 -1.3104596 1.0997013 9.1270016e-39
8.2431164 -1.1013782 1.1000155 8.7592981e-39
8.4081068 -1.1039927 1.0835135 9.1266415e-39
8.239171 -0.90331054 1.1005806 8.2983157e-39
8.4046164 -0.9165377 1.0608995 8.9415286e-39
8.2437649 -0.70069951 1.1002971 8.5745467e-39
8.4056034 -0.73119152 1.1045789 8.8489742e-39
8.2331104 -0.43004948 1.1043217 6.3596922e-39
8.4035778 -0.50793123 1.0771378 8.7564198e-39
8.2564316 -0.30457112 1.0988828 7.2816513e-39
8.4064035 -0.25508264 1.0451019 4.7927322e-39
8.2449646 -0.10099483 1.1003653 8.1117693e-39
8.1971531 0.18625788 1.122013 7.4667614e-39
8.2297554 0.097986192 1.1000035 7.7429882e-39
8.1968813 0.23001416 1.153924 6.6366364e-39
8.2308693 0.29952568 1.0996314 7.28201e-39
8.2479534 0.49942076 1.0993835 7.3749273e-39
8.2608051 0.6990999 1.0990332 7.2830918e-39
8.2722836 0.86621952 1.0969141 6.9143121e-39
8.7630262 -3.8074825 1.2565374 1.1251837e-38
8.8170671 -3.8973598 1.2261193 1.668957e-38
8.719264 -3.695915 1.3092004 4.7985294e-39
8.5766315 -3.4131601 1.2668976 1.0418857e-38
8.6384058 -3.5209718 1.2771924 8.9437258e-39
8.4602079 -3.2513733 1.2988299 1.4200673e-38
8.3812342 -3.0840464 1.205438 8.5774782e-39
8.4439507 -3.0412686 1.305678 1.0046836e-38
8.3976097 -2.9519763 1.2081442 8.8519169e-39
8.4475842 -2.8813214 1.2876631 7.6537128e-39
8.3973246 -2.7006609 1.3673198 3.3183785e-39
8.4496794 -2.7087145 1.2847675 7.3774819e-39
8.3966904 -2.4890172 1.3408514 1.1159641e-38
8.4415398 -2.4890652 1.2926941 3.878029e-39
8.3884621 -2.2643228 1.3210485 2.4969177e-39
8.4125366 -2.3134398 1.2890824 2.4965575e-39
8.3911943 -2.1480718 1.3089902 2.5891147e-39
8.4223175 -2.0811205 1.2958343 2.6813103e-39
8.3969193 -1.8055748 1.3604374 3.4195971e-39
8.4250813 -1.9023081 1.2979332 3.1419298e-39
8.2846651 -1.6094289 1.3020252 7.6522359e-39
8.4153814 -1.6993474 1.3104464 3.3274014e-39
8.1993151 -1.5828192 1.3460751 1.474777e-39
8.2675619 -1.4950006 1.2987331 8.8511378e-39
8.4494057 -1.50361 1.3016312 4.8889173e-39
8.2553034 -1.3019006 1.3000815 9.1284393e-39
8.4317417 -1.3111274 1.2963346 9.5883385e-39
8.1989994 -1.0690724 1.3505572 9.4050248e-39
8.2244864 -1.1005024 1.3004366 9.2206336e-39
8.4093046 -1.135837 1.2854981 9.4961415e-39
8.1956596 -0.96449399 1.2972802 7.5611136e-39
8.2292061 -0.90042502 1.2996217 8.7596554e-39
8.4050455 -0.90675867 1.2784442 9.3106726e-39
8.1979294 -0.68492961 1.2045474 8.7596554e-39
8.2405691 -0.69912505 1.2992411 8.8518511e-39
8.2288227 -0.4365522 1.3027948 6.8210291e-39
8.4035568 -0.50061089 1.2906965 9.0330067e-39
8.2491713 -0.30425957 1.2998664 7.4664027e-39
8.4056034 -0.25863072 1.237532 7.0990481e-39
8.1959839 -0.074400581 1.3819146 8.2972409e-39
8.2217445 -0.099732593 1.2992023 8.2965207e-39
8.196559 0.14469871 1.3304346 8.0202939e-39
8.2188396 0.092734404 1.2952118 8.0202939e-39
8.19631 0.22986382 1.2832611 7.0983334e-39
8.2259531 0.30213416 1.3011911 7.2827261e-39
8.2457209 0.49948451 1.2995056 7.2830904e-39
8.2574949 0.69853675 1.2996658 7.2834492e-39
8.2647934 0.86598647 1.3030956 7.0072252e-39
8.4568462 -3.0115457 1.4066107 7.2640286e-39
8.439786 -2.7153521 1.4048313 3.6773883e-39
8.4369764 -2.4886076 1.4412366 5.8118952e-39
8.3856468 -2.2687879 1.5021707 2.4972806e-39
8.4106598 -2.3095031 1.491696 2.497282e-39
8.388525 -2.132123 1.5071139 2.7738689e-39
8.4150667 -2.0794611 1.4941304 2.8660631e-39
8.391057 -1.8920441 1.4944918 1.1986898e-38
8.4155741 -1.9031448 1.5048563 1.1342609e-38
8.2652483 -1.6114824 1.5103705 5.9005273e-39
8.4151773 -1.6992847 1.5048978 9.3172013e-39
8.265317 -1.4984347 1.4948682 9.4050318e-39
8.4544554 -1.5041409 1.4998469 5.0740303e-39
8.1992836 -1.2575963 1.5809053 1.0235506e-38
8.2441082 -1.3006569 1.4996451 9.774529e-39
8.4370098 -1.3168654 1.504072 1.0326622e-38
8.1977415 -1.0737175 1.4789971 9.7741689e-39
8.213994 -1.097168 1.5007089 9.8663631e-39
8.4075794 -1.1563979 1.4824762 1.0234067e-38
8.1939507 -0.92390752 1.5486989 9.2213538e-39
8.2224712 -0.9014473 1.5001547 9.4975806e-39
8.2364111 -0.70027804 1.4998695 9.5901364e-39
8.2291899 -0.44334701 1.5029341 7.4664013e-39
8.1982441 -0.23855062 1.5709295 9.3103153e-39
8.2402592 -0.30261457 1.4995527 8.0199352e-39
8.4006748 -0.22317867 1.5635259 5.4366569e-39
8.1946764 -0.087204397 1.49569 8.757859e-39
8.2122946 -0.10196862 1.500578 8.8496959e-39
8.1925259 0.14491449 1.5184575 8.3894366e-39
8.2121019 0.075773925 1.4891914 8.4812721e-39
8.1940584 0.23513277 1.5184644 7.4674775e-39
8.2221336 0.30196726 1.4988006 7.5596745e-39
8.236599 0.49920976 1.4998499 7.4674817e-39
8.2448349 0.69932193 1.5000218 7.2834506e-39
8.2541876 0.86469042 1.4963835 7.5604018e-39
8.4560394 -2.4294 1.6878315 3.0497313e-39
8.3834171 -2.2780674 1.6992075 3.0500971e-39
8.4096193 -2.2993133 1.6884458 3.0500957e-39
8.3835974 -2.1203861 1.7072361 3.23521e-39
8.4143324 -2.055829 1.6951752 3.4196013e-39
8.3934717 -1.8698832 1.7044562 5.7230417e-39
8.4150248 -1.905192 1.6956607 6.4602396e-39
8.1902609 -1.6026578 1.7036328 1.865983e-40
8.2535105 -1.6111622 1.7058855 5.6232216e-39
8.4156446 -1.7103875 1.6931565 5.3549794e-39
8.1876869 -1.5957481 1.6999916 3.6954483e-40
8.2605772 -1.4885256 1.6996092 1.0787968e-38
8.4473019 -1.5068855 1.6964402 5.4431799e-39
8.19695 -1.2255645 1.6605378 1.0696125e-38
8.2425537 -1.3016481 1.7018143 1.0972353e-38
8.4274521 -1.323465 1.6987203 1.1340418e-38
8.196167 -1.0700119 1.6994383 1.0972711e-38
8.2096472 -1.1073688 1.6970623 1.0972352e-38
8.4020872 -1.193464 1.7764499 1.1617002e-38
8.1964903 -0.8731553 1.7542301 1.1065268e-38
8.2112894 -0.90580738 1.6897986 1.0512094e-38
8.1972694 -0.78530693 1.7253126 1.1065269e-38
8.2247267 -0.69859135 1.7005508 1.0880877e-38
8.1973362 -0.47540146 1.7779322 9.6780174e-39
8.2243776 -0.45095378 1.6989319 8.4805546e-39
8.197319 -0.21833068 1.7244489 1.023227e-38
8.2307568 -0.3032648 1.6999924 9.0333669e-39
8.1942081 -0.10283723 1.7088485 9.8634877e-39
8.2130213 -0.10084173 1.6976378 9.7716508e-39
8.1871986 0.12314823 1.7070808 9.2184784e-39
8.2098017 0.06028793 1.6871907 9.310674e-39
8.1952505 0.23643573 1.7292184 8.6660235e-39
8.215354 0.30446345 1.6962463 8.0206541e-39
8.197794 0.46699634 1.7634331 7.8362656e-39
8.2231598 0.49959937 1.6994203 7.6522331e-39
8.197257 0.6730364 1.6896501 8.2990514e-39
8.2343521 0.69943106 1.6995295 7.2834506e-39
8.2426777 0.86302328 1.7008339 7.744793e-39
8.4259157 -2.448282 1.9793742 3.6918385e-39
8.384675 -2.2772326 1.8984301 4.24755e-39
8.4104977 -2.2787616 1.9162234 3.9702387e-39
8.3838644 -2.1060495 1.8941342 4.8932852e-39
8.4102154 -2.0596561 1.9021772 4.9862025e-39
8.38696 -1.8634276 1.8897204 5.5393819e-39
8.4158564 -1.9347757 1.9093701 5.723413e-39
8.2525253 -1.608219 1.9106019 6.7288517e-39
8.4087639 -1.6958617 1.8578008 5.4475464e-39
8.2537899 -1.4921963 1.8973652 1.1985791e-38
8.4403038 -1.4757186 1.8871719 7.6540632e-39
8.199852 -1.2619448 1.8496981 1.189395e-38
8.2367239 -1.3000337 1.9013884 1.2170536e-38
8.4173746 -1.3288741 1.8803542 1.2538962e-38
8.195611 -1.0735868 1.9039786 1.2171614e-38
8.211153 -1.1042929 1.8950982 1.207906e-38
8.4024448 -1.1912193 1.8394361 1.2077981e-38
8.1907387 -0.87150067 1.8966808 1.2171615e-38
8.2095737 -0.91475821 1.9026664 1.2171614e-38
8.1939011 -0.76069337 1.9036101 1.2448202e-38
8.2231331 -0.68821877 1.8992497 1.2448204e-38
8.1919079 -0.49645922 1.9061173 1.0784005e-38
8.2212105 -0.44745395 1.8997444 9.7712934e-39
8.400425 -0.48182717 1.9674814 1.3089621e-38
8.1977854 -0.27103508 1.8809699 1.1522647e-38
8.2267799 -0.30236378 1.9009776 1.0231909e-38
8.1963959 -0.055029292 1.9027156 1.0785443e-38
8.2130499 -0.11081394 1.8985764 1.0969834e-38
8.1840467 0.11120657 1.9017019 9.9556819e-39
8.2046995 0.052362803 1.8893516 1.0140433e-38
8.1933918 0.26661694 1.9204373 8.5734663e-39
8.2096663 0.31950682 1.8831439 8.4812721e-39
8.1972446 0.50438809 1.9398592 7.6518715e-39
8.2155533 0.49816984 1.8975396 7.6518729e-39
8.1945944 0.61656183 1.9198651 7.0990593e-39
8.2331152 0.70143861 1.8997639 7.0068623e-39
8.2300987 0.86041468 1.8994935 7.5600402e-39
8.4469538 -2.4590166 2.0278647 7.6547904e-39
8.383132 -2.2531488 2.0214145 7.2852989e-39
8.4170656 -2.3387284 2.0194654 5.4410275e-39
8.3712568 -2.1181982 2.0156791 7.007619e-39
8.4286318 -2.0354002 2.0769165 9.3095908e-39
8.3878117 -1.8398576 2.0267725 8.2072299e-39
8.4604826 -1.8905188 2.0931716 1.3912482e-38
8.3257704 -1.6222248 2.0432174 1.1709204e-38
8.4236612 -1.6990024 2.0911751 1.520395e-38
8.2530603 -1.4640808 2.0713131 1.4473259e-38
8.4430065 -1.507053 2.0714698 1.2256599e-38
8.2457809 -1.2941234 2.097208 1.8070336e-38
8.4106808 -1.2842522 2.0945716 1.6407564e-38
8.1954603 -1.0113924 2.0194337 1.3277957e-38
8.2447853 -1.1026673 2.1060979 1.8162533e-38
8.4090967 -1.1172224 2.1588285 2.2218422e-38
8.1919651 -0.85497546 2.0811076 1.6223157e-38
8.2186546 -0.91206503 2.1036553 1.7326973e-38
8.4182014 -0.88826632 2.1539967 1.9264182e-38
8.1950502 -0.76179755 2.1345856 1.9075081e-38
8.2204418 -0.68794459 2.0934815 1.7605374e-38
8.1913338 -0.49980602 2.1000001 1.7237705e-38
8.2166491 -0.45366621 2.1021895 1.7699403e-38
8.4028559 -0.50326961 2.1568546 2.1842046e-38
8.191577 -0.29214087 2.0152817 1.1705601e-38
8.2364082 -0.30216917 2.1015143 1.3915387e-38
8.4030647 -0.22909254 2.182296 2.2680484e-38
8.194931 -0.050572366 2.0497897 1.198327e-38
8.2338467 -0.10341468 2.098659 1.0967302e-38
8.1881571 0.10995366 2.0819209 1.0229731e-38
8.2096539 0.076220505 2.1408978 1.2990529e-38
8.1916313 0.2644926 2.0807638 9.0344557e-39
8.2150145 0.32818753 2.1141465 1.0416304e-38
8.1954117 0.48744217 2.089891 6.8213892e-39
8.2158966 0.4992778 2.1027391 7.2798352e-39
8.1966591 0.64563835 2.0633564 7.3745644e-39
8.2265701 0.70033365 2.1003361 6.1731219e-39
8.1951609 0.84719443 2.0650904 4.9789171e-39
8.229125 0.85275328 2.0968878 5.9916285e-39
8.8618555 -3.2773335 2.3418562 1.005005e-38
8.8647537 -3.1585767 2.3164926 1.1524066e-38
8.7849674 -2.2779863 2.3697841 1.0877292e-38
8.8317709 -2.2365999 2.3607218 1.1985073e-38
8.4220467 -2.0145328 2.2262173 1.2074347e-38
8.8537588 -2.0874462 2.3436716 1.2907746e-38
8.3932438 -1.9884781 2.2432952 1.2074379e-38
8.8834724 -1.8965359 2.3423688 1.474949e-38
8.8563395 -1.7227415 2.3679311 1.7883052e-38
8.2795334 -1.4273803 2.2074656 2.2397008e-38
8.8666925 -1.5902287 2.3862498 2.2128395e-38
8.2330656 -1.2455261 2.2905562 1.5860154e-38
8.415473 -1.2189165 2.210541 2.2210819e-38
8.2500381 -1.0998431 2.301331 1.4015504e-38
8.4171839 -1.0584543 2.2514231 1.8257547e-38
8.1907196 -0.87448984 2.232142 2.1932409e-38
8.2408276 -0.89870447 2.3096375 1.4377448e-38
8.4209547 -0.88398808 2.2887888 1.5393383e-38
8.188796 -0.74432516 2.2636876 1.6867448e-38
8.2381086 -0.70049977 2.3005803 1.6775263e-38
8.4106092 -0.76075429 2.353117 1.2626101e-38
8.1623564 -0.47408712 2.3159158 1.9543677e-38
8.2122154 -0.44652998 2.2405691 1.6683443e-38
8.4122305 -0.52075022 2.3236306 1.4652617e-38
8.1761599 -0.36087459 2.3589082 1.6317542e-38
8.2333183 -0.31213817 2.2606699 1.5479453e-38
8.4023209 -0.24818116 2.2567561 2.1202826e-38
8.1975679 -0.0055128448 2.2959511 1.602683e-38
8.2495155 -0.13367115 2.249989 1.0966196e-38
8.1952114 0.12773924 2.3078113 1.0508096e-38
8.2106237 0.083694294 2.2965565 1.2717526e-38
8.1921844 0.25708836 2.2452452 4.4315489e-39
8.2237453 0.31329256 2.3125317 6.1793002e-39
8.1921291 0.48000574 2.26897 5.8054352e-39
8.2191114 0.49911225 2.2985065 6.8199501e-39
8.196311 0.63099194 2.3939734 1.106059e-38
8.218255 0.69918376 2.2996559 7.7390085e-39
8.1969166 0.83938122 2.347178 1.8431965e-39
8.2292128 0.85264021 2.2983377 5.6228446e-39
8.9009066 -3.4745305 2.5871265 6.085636e-39
8.8715763 -3.2720594 2.5037982 7.8373488e-39
8.8747377 -3.1032434 2.5114603 7.3777986e-39
8.8538694 -2.897594 2.5224175 7.9291773e-39
8.850771 -2.6940846 2.5167937 7.8373502e-39
8.7910719 -2.4207416 2.4790344 8.5749166e-39
8.839303 -2.507308 2.5145483 8.0221002e-39
8.7898312 -2.3118992 2.4890347 8.6667507e-39
8.8163166 -2.28299 2.500617 8.6671095e-39
8.7955513 -2.1729605 2.527118 8.3901625e-39
8.8393984 -2.0851829 2.49685 9.6805411e-39
8.8678703 -1.9098862 2.499665 1.0418465e-38
8.7920828 -1.753701 2.5618005 8.3898023e-39
8.8447666 -1.6956159 2.500108 1.1709208e-38
8.8588877 -1.5829024 2.5053711 1.6046004e-38
8.1967125 -1.2265202 2.5045991 2.0552796e-38
8.2191629 -1.2432779 2.4715247 1.6593444e-38
8.1983528 -1.195361 2.5339949 2.2757915e-38
8.2364483 -1.1015033 2.4769373 1.5849399e-38
8.4029007 -1.0246338 2.4401975 1.8260847e-38
8.2692165 -0.97378761 2.4509413 9.6729741e-39
8.4142227 -0.8429212 2.4617095 1.031765e-38
8.2684765 -0.7156353 2.4030414 1.3273285e-38
8.4122496 -0.78956747 2.4594223 9.6765825e-39
8.1402159 -0.47226372 2.4583013 1.9081997e-38
8.2090158 -0.56761891 2.511534 1.4472985e-38
8.1515274 -0.35955161 2.4630516 1.5581423e-38
8.2999668 -0.31378379 2.4483223 5.9898293e-39
8.4635086 -0.31221491 2.463429 6.8206703e-39
8.8557787 -0.22106978 2.5510311 9.033727e-39
8.2361841 -0.008252671 2.488054 1.4286637e-38
8.8530617 -0.091892414 2.5349483 1.1153854e-38
8.1942368 0.097025439 2.4458621 1.3279674e-38
8.2153425 0.10158709 2.4850757 1.3087043e-38
8.8632345 0.0048891716 2.5608311 1.6319956e-38
8.2329082 0.29882172 2.4789963 1.2719038e-38
8.1949806 0.49351546 2.4789376 7.8337447e-39
8.2204342 0.4828389 2.4803534 7.1890955e-39
8.1949577 0.71402502 2.5508165 8.2028859e-39
8.2130747 0.69451284 2.4873466 8.8478938e-39
8.1951685 0.85752344 2.5593014 5.3459046e-39
8.2196732 0.85081524 2.4936595 6.0841885e-39
8.8960695 -3.4731004 2.6874959 4.9785682e-39
8.7933559 -3.2329383 2.7664037 4.5175887e-39
8.8572769 -3.2901249 2.6988001 4.9789269e-39
8.8750648 -3.0938394 2.7058961 5.2558726e-39
8.8671398 -2.8904366 2.7000721 5.5324595e-39
8.8505287 -2.6962278 2.6984382 5.7168493e-39
8.7943783 -2.4761009 2.669096 5.9937977e-39
8.8322468 -2.4908123 2.698298 5.8094037e-39
8.7904758 -2.2882893 2.7129865 5.8086848e-39
8.8142204 -2.2846401 2.6905882 6.1771086e-39
8.7946987 -2.1250033 2.7859502 5.7157661e-39
8.836709 -2.0960202 2.6991806 6.3614971e-39
8.7965002 -1.8137385 2.7224045 6.0849116e-39
8.8573618 -1.9119043 2.7033772 6.5458883e-39
8.789485 -1.7335579 2.7005007 6.4536941e-39
8.8243589 -1.686059 2.6999912 8.0185031e-39
8.8354416 -1.5708063 2.7059331 1.7607224e-38
8.8370771 -1.294789 2.7932644 1.2059603e-38
8.8428936 -1.0704463 2.7348053 6.6377266e-39
8.8516951 -0.88741976 2.7177882 6.9139534e-39
8.8514175 -0.76853055 2.7112038 1.8713552e-38
8.3731089 -0.40310752 2.6006968 2.3508431e-38
8.8590364 -0.25286731 2.7187819 6.914675e-39
8.7979374 -0.13289237 2.7158074 6.3618642e-39
8.8396091 -0.1006206 2.6993003 8.9425921e-39
8.8386011 0.005119781 2.6218386 1.4037206e-38
8.1943722 0.77151763 2.6001036 6.2664176e-39
8.2143288 0.73052388 2.6032467 7.280931e-39
8.195735 0.8979764 2.6664429 6.2675008e-39
8.2153921 0.88330775 2.6396048 6.452248e-39
8.8526821 -3.4744737 2.9032929 4.0562462e-39
8.787324 -3.3297043 2.963547 4.3324757e-39
8.8351851 -3.2921343 2.902317 4.4250329e-39
8.8579302 -3.0996225 2.8953705 4.7023401e-39
8.8750257 -2.9040465 2.9016516 4.9792857e-39
8.8569098 -2.691071 2.8975127 5.2555124e-39
8.7997332 -2.4923763 2.9052906 5.624295e-39
8.8302078 -2.4920216 2.9054754 5.5320979e-39
8.7921286 -2.2649324 2.8528545 5.5320979e-39
8.8264303 -2.3107886 2.9059894 5.624295e-39
8.7970819 -2.1483352 2.8892889 5.8083261e-39
8.8319721 -2.1004312 2.9000628 5.7164878e-39
8.7830753 -1.8136437 2.8903708 5.9005203e-39
8.8452158 -1.9171416 2.9009235 5.808682e-39
8.7900763 -1.7180513 2.8976021 5.9927159e-39
8.816678 -1.683527 2.898421 6.1763855e-39
8.7953691 -1.5824031 2.9021776 5.9930733e-39
8.8383942 -1.4946153 2.8970206 6.8188725e-39
8.7933779 -1.2407579 2.9053586 5.9919971e-39
8.8446274 -1.3073081 2.8991351 6.0834696e-39
8.7974215 -1.1363517 2.9253838 5.8998014e-39
8.8244534 -1.094278 2.8979878 5.7161305e-39
8.7837639 -0.86971408 2.9626572 5.8083275e-39
8.8469687 -0.89920849 2.9006691 5.5317392e-39
8.7966747 -0.68919742 2.9121699 5.439182e-39
8.8322144 -0.69715136 2.9029727 7.742991e-39
8.7834349 -0.43080926 2.806005 2.3503388e-38
8.842412 -0.49897006 2.9131317 6.7284775e-39
8.8423805 -0.29645455 2.9017909 5.3473479e-39
8.7894688 -0.12257299 2.8966758 5.4388261e-39
8.8320389 -0.099817939 2.888407 5.9916355e-39
8.8414412 0.014030937 2.896831 6.0831067e-39
8.788249 -3.4648602 3.0629034 4.0566035e-39
8.8110123 -3.4232082 3.0611959 4.2409962e-39
8.7786722 -3.3065894 3.11216 4.6094214e-39
8.8242245 -3.2455962 3.0934372 5.0704023e-39
8.8542204 -3.1058881 3.0865648 6.4537011e-39
8.873929 -2.9079983 3.0635819 5.6242978e-39
8.8549881 -2.6949532 3.063252 5.9930789e-39
8.7959261 -2.5281849 3.0699279 6.4540556e-39
8.8291416 -2.473269 3.0665889 6.4540556e-39
8.7955923 -2.2962956 3.0643103 6.822478e-39
8.8304672 -2.2929423 3.0577805 6.5458939e-39
8.7958469 -2.1823277 3.0473399 6.7302838e-39
8.8277626 -2.087687 3.0684354 6.7310026e-39
8.7812366 -1.8346364 3.0499556 7.0072308e-39
8.8314915 -1.918672 3.0715141 6.9150352e-39
8.7871084 -1.7078874 3.0418882 7.0068693e-39
8.8147469 -1.6906233 3.0690897 7.007228e-39
8.7945614 -1.5458009 3.0756381 7.0990635e-39
8.8306255 -1.4916723 3.0745847 6.9146722e-39
8.7841158 -1.2477336 3.0976341 7.1912577e-39
8.8312426 -1.2992816 3.0676351 6.822478e-39
8.7961397 -1.1264154 3.0362985 6.5458897e-39
8.8178291 -1.0960566 3.0571287 6.5462499e-39
8.7861404 -0.84766138 3.0499842 6.4536969e-39
8.8349094 -0.91631919 3.0459726 6.1774687e-39
8.7894392 -0.68503588 3.0166037 5.9923614e-39
8.8236628 -0.71165627 3.0294163 5.9005203e-39
8.8445377 -0.51843596 3.0234721 5.5317378e-39
8.8464851 -0.32765535 3.0080755 5.3473465e-39
8.7776794 -3.289325 3.2151546 4.793821e-39
8.8185034 -3.2268269 3.2223773 1.179745e-38
8.7971859 -3.1391821 3.2095594 2.3325847e-38
8.8242273 -3.1520979 3.2163694 2.3234012e-38
