# .PCD v0.7 - Point Cloud Data file format
VERSION 0.7
FIELDS x y z rgb
SIZE 4 4 4 4
TYPE F F F F
COUNT 1 1 1 1
WIDTH 1073
HEIGHT 1
VIEWPOINT 0 0 0 1 0 0 0
POINTS 1073
DATA ascii
-10.250319 15.467363 1.7956756 9.0308165e-39
-10.250559 15.471103 1.7955244 9.39852e-39
-10.261134 15.468396 1.7970799 9.0297403e-39
-10.251038 15.478583 1.7952217 8.6616808e-39
-10.251277 15.482324 1.7950703 9.1230261e-39
-10.261857 15.479678 1.7966231 9.7691214e-39
-10.27368 15.47631 1.7983788 1.161412e-38
-10.273922 15.480094 1.7982256 1.1430452e-38
-10.274165 15.483877 1.7980727 9.6787349e-39
-10.274407 15.487661 1.7979195 7.8348195e-39
-10.27465 15.491445 1.7977662 7.8333775e-39
-10.274893 15.495228 1.797613 8.1096001e-39
-10.275135 15.499012 1.79746 8.2925466e-39
-10.275377 15.502795 1.7973069 8.4772938e-39
-10.264026 15.513524 1.7952532 8.8464364e-39
-10.264267 15.517284 1.795101 8.6631242e-39
-10.276105 15.514147 1.7968472 8.663127e-39
-10.276347 15.51793 1.7966942 8.4787357e-39
-10.27659 15.521714 1.7965411 8.2025118e-39
-10.276833 15.525497 1.7963879 8.7556884e-39
-10.249884 15.455974 1.7923937 8.7553198e-39
-10.250123 15.459713 1.7922423 8.5702041e-39
-10.250362 15.463453 1.7920908 8.6623969e-39
-10.250603 15.467194 1.7919395 9.0308193e-39
-10.250842 15.470934 1.7917881 9.1230149e-39
-10.251081 15.474673 1.7916367 8.846428e-39
-10.251321 15.478414 1.7914853 8.6616836e-39
-10.251561 15.482154 1.7913342 9.1230261e-39
-10.251801 15.485894 1.7911826 9.6776447e-39
-10.273967 15.476138 1.7945992 1.1246058e-38
-10.262624 15.487029 1.7925619 1.1246779e-38
-10.274451 15.483706 1.7942928 9.6790964e-39
-10.263105 15.494551 1.7922574 8.0192135e-39
-10.274937 15.491273 1.7939864 8.0177688e-39
-10.275179 15.495057 1.7938333 8.2017957e-39
-10.275422 15.49884 1.7936802 8.3847422e-39
-10.275664 15.502624 1.793527 8.4772938e-39
-10.275907 15.506408 1.7933738 8.8464392e-39
-10.276149 15.510191 1.7932208 8.663127e-39
-10.276392 15.513975 1.7930676 8.7549667e-39
-10.276634 15.517758 1.7929144 8.6627711e-39
-10.276876 15.521543 1.7927613 8.2947074e-39
-10.277119 15.525326 1.7926081 8.7556884e-39
-10.250167 15.455804 1.7886574 8.7553226e-39
-10.250406 15.459544 1.788506 8.4790903e-39
-10.250646 15.463284 1.7883546 8.7545925e-39
-10.250886 15.467024 1.7882032 8.9389838e-39
-10.251125 15.470764 1.7880518 9.1230149e-39
-10.251366 15.474504 1.7879004 8.9382677e-39
-10.251605 15.478245 1.7877492 8.8467938e-39
-10.251844 15.481984 1.7875977 9.2163008e-39
-10.252084 15.485724 1.7874464 9.8620359e-39
-10.262668 15.483098 1.7889574 1.1061667e-38
-10.262909 15.486858 1.788805 1.1154584e-38
-10.26315 15.49062 1.7886528 9.771292e-39
-10.274981 15.487318 1.7903597 8.0199324e-39
-10.275223 15.491102 1.7902066 7.926292e-39
-10.275466 15.494885 1.7900536 8.1103189e-39
-10.275708 15.498669 1.7899004 8.2932655e-39
-10.27595 15.502453 1.7897472 8.4776567e-39
-10.264596 15.513184 1.7877396 8.5705754e-39
-10.264836 15.516944 1.7875873 8.6627739e-39
-10.276678 15.513803 1.7892878 8.8471651e-39
-10.27692 15.517588 1.7891346 8.7549695e-39
-10.277164 15.521371 1.7889816 8.4791015e-39
-10.277406 15.525155 1.7888285 8.755331e-39
-10.25045 15.455634 1.7849209 8.7549667e-39
-10.25069 15.459374 1.7847698 8.5709286e-39
-10.25093 15.463115 1.7846184 8.5712831e-39
-10.251169 15.466855 1.784467 8.846791e-39
-10.25141 15.470594 1.7843156 9.1233779e-39
-10.251649 15.474335 1.7841643 9.031185e-39
-10.251888 15.478075 1.7840127 9.1230233e-39
-10.252128 15.481815 1.7838614 9.401055e-39
-10.262712 15.479167 1.7853527 1.0046789e-38
-10.262953 15.482927 1.7852006 1.0877994e-38
-10.263193 15.486689 1.7850484 1.0970913e-38
-10.263435 15.490449 1.784896 9.6801754e-39
-10.263676 15.49421 1.7847439 7.8362614e-39
-10.263917 15.497971 1.7845918 7.7426238e-39
-10.264157 15.501731 1.7844394 7.9262892e-39
-10.264399 15.505491 1.7842872 8.1095973e-39
-10.276237 15.502281 1.7859676 8.5698552e-39
-10.27648 15.506065 1.7858144 8.5705796e-39
-10.276723 15.509849 1.7856612 8.6627753e-39
-10.276965 15.513633 1.785508 8.8471665e-39
-10.277207 15.517416 1.785355 8.8471665e-39
-10.27745 15.521199 1.7852019 8.4787441e-39
-10.277692 15.524983 1.7850486 8.8475295e-39
-10.250733 15.455465 1.7811847 8.6627739e-39
-10.250973 15.459206 1.7810334 8.5716502e-39
-10.251213 15.462945 1.7808821 8.4794504e-39
-10.251452 15.466685 1.7807307 8.6634815e-39
-10.251692 15.470426 1.7805792 9.031185e-39
-10.251932 15.474166 1.7804278 9.031185e-39
-10.252172 15.477905 1.7802765 8.9397111e-39
-10.262755 15.475236 1.7817482 9.4932506e-39
-10.262997 15.478997 1.7815959 9.8634764e-39
-10.263238 15.482758 1.7814438 1.097019e-38
-10.263479 15.486518 1.7812917 1.0971632e-38
-10.275311 15.483191 1.7829535 9.5886986e-39
-10.275555 15.486976 1.7828004 7.7447846e-39
-10.275797 15.490759 1.7826473 7.4667558e-39
-10.276039 15.494542 1.7824942 7.8340936e-39
-10.276281 15.498326 1.7823409 8.0174044e-39
-10.276525 15.50211 1.7821877 8.5694992e-39
-10.276767 15.505894 1.7820346 8.5702237e-39
-10.265407 15.516603 1.7800736 8.6624193e-39
-10.277251 15.513461 1.7817281 8.8468134e-39
-10.277494 15.517244 1.7815751 8.754615e-39
-10.277737 15.521029 1.781422 8.4787497e-39
-10.277979 15.524812 1.7812688 8.8475323e-39
-10.251018 15.455296 1.7774485 8.7549709e-39
-10.251257 15.459036 1.777297 8.7556856e-39
-10.251496 15.462775 1.7771457 8.4794518e-39
-10.251736 15.466516 1.7769945 8.5709286e-39
-10.251976 15.470256 1.776843 8.6631242e-39
-10.252215 15.473996 1.7766917 8.6631242e-39
-10.252455 15.477736 1.7765403 8.6638459e-39
-10.263041 15.475066 1.7779914 9.1251869e-39
-10.263282 15.478827 1.7778392 9.4954128e-39
-10.263523 15.482587 1.7776868 1.0879073e-38
-10.263763 15.486348 1.7775348 1.1063827e-38
-10.275599 15.483021 1.7791736 9.6808943e-39
-10.275842 15.486804 1.7790205 7.6525904e-39
-10.276084 15.490588 1.7788674 7.374563e-39
-10.264728 15.50139 1.7769258 7.4663929e-39
-10.276568 15.498155 1.7785611 7.9255704e-39
-10.276811 15.501939 1.7784079 8.478384e-39
-10.277054 15.505722 1.7782547 8.4780309e-39
-10.277296 15.509506 1.7781017 8.5702265e-39
-10.277538 15.513289 1.7779485 8.7546206e-39
-10.277781 15.517074 1.7777954 8.6624221e-39
-10.278024 15.520857 1.7776423 8.4783938e-39
-10.266656 15.531476 1.7757082 8.8471763e-39
-10.2513 15.455126 1.7737122 8.6631354e-39
-10.25154 15.458866 1.7735609 8.8478812e-39
-10.25178 15.462606 1.7734095 8.4798147e-39
-10.25202 15.466347 1.773258 8.387259e-39
-10.252259 15.470087 1.7731067 8.5709286e-39
-10.252499 15.473826 1.7729554 8.4787329e-39
-10.252738 15.477567 1.7728039 8.4794546e-39
-10.263326 15.474895 1.7742347 8.8486e-39
-10.263567 15.478656 1.7740824 9.1266303e-39
-10.263807 15.482417 1.7739302 1.0971269e-38
-10.264049 15.486177 1.773778 1.1156023e-38
-10.26429 15.489938 1.7736257 9.5890588e-39
-10.276128 15.486633 1.7752408 7.6525904e-39
-10.27637 15.490417 1.7750875 7.0065007e-39
-10.276612 15.4942 1.7749344 7.3741972e-39
-10.276855 15.497984 1.7747813 7.8333747e-39
-10.277098 15.501767 1.7746283 8.478384e-39
-10.27734 15.505551 1.7744751 8.4780309e-39
-10.277583 15.509335 1.7743219 8.5702293e-39
-10.277825 15.513118 1.7741687 8.6624249e-39
-10.278068 15.516902 1.7740158 8.6624249e-39
-10.27831 15.520685 1.7738626 8.3861982e-39
-10.266941 15.531305 1.7719513 8.8471763e-39
-10.251584 15.454957 1.769976 8.2943557e-39
-10.251823 15.458697 1.7698246 8.5712971e-39
-10.252063 15.462437 1.7696731 8.4798147e-39
-10.252303 15.466177 1.7695217 8.6638459e-39
-10.252542 15.469917 1.7693704 8.5716502e-39
-10.252782 15.473658 1.769219 8.2028649e-39
-10.253022 15.477397 1.7690678 8.2950633e-39
-10.253262 15.481137 1.7689164 9.2173826e-39
-10.253502 15.484878 1.768765 1.0048585e-38
-10.264092 15.482246 1.7701733 1.1617354e-38
-10.264334 15.486007 1.7700211 1.1433329e-38
-10.264575 15.489768 1.769869 9.5890588e-39
-10.264816 15.493528 1.7697167 7.4681991e-39
-10.276657 15.490245 1.7713079 7.0986964e-39
-10.265298 15.50105 1.7694123 7.4663929e-39
-10.265538 15.50481 1.76926 7.8340936e-39
-10.265779 15.508571 1.7691077 8.3865485e-39
-10.266021 15.512332 1.7689556 8.4780337e-39
-10.266262 15.516092 1.7688034 8.3854807e-39
-10.266502 15.519853 1.7686512 8.6624249e-39
-10.266744 15.523614 1.768499 8.7546206e-39
-10.266985 15.527374 1.7683468 8.2940025e-39
-10.267226 15.531135 1.7681946 8.3861982e-39
-10.251867 15.454787 1.7662398 8.3865513e-39
-10.252107 15.458528 1.7660884 8.4791015e-39
-10.252347 15.462268 1.7659369 8.4798175e-39
-10.252586 15.466008 1.7657855 8.7560415e-39
-10.252826 15.469748 1.7656341 8.7560415e-39
-10.253066 15.473488 1.7654828 8.4794518e-39
-10.253305 15.477228 1.7653314 8.4794518e-39
-10.253545 15.480968 1.7651801 9.2173798e-39
-10.253785 15.484709 1.7650285 9.8641939e-39
-10.264378 15.482076 1.7664167 1.1432963e-38
-10.264619 15.485837 1.7662644 1.134113e-38
-10.26486 15.489597 1.7661122 9.5894161e-39
-10.2651 15.493358 1.7659599 7.652589e-39
-10.265342 15.497119 1.7658076 7.1912479e-39
-10.265583 15.500879 1.7656555 7.6507841e-39
-10.265823 15.504641 1.7655033 7.9262892e-39
-10.266065 15.508401 1.7653512 8.3865485e-39
-10.266306 15.512161 1.7651988 8.6624221e-39
-10.266547 15.515923 1.7650467 8.6624249e-39
-10.266788 15.519683 1.7648945 8.8468162e-39
-10.267029 15.523443 1.7647421 8.9390118e-39
-10.267269 15.527205 1.7645899 8.4783938e-39
-10.26751 15.530965 1.7644377 8.5709454e-39
-10.252151 15.454618 1.7625033 8.5709426e-39
-10.252391 15.458358 1.7623521 8.4791015e-39
-10.25263 15.462098 1.7622007 8.4798175e-39
-10.25287 15.465838 1.7620492 8.8482371e-39
-10.25311 15.469579 1.7618979 8.9404327e-39
-10.253349 15.473318 1.7617465 8.7553198e-39
-10.253589 15.477058 1.7615951 8.5716474e-39
-10.253828 15.480799 1.7614435 9.2173798e-39
-10.254068 15.484539 1.7612923 9.7719955e-39
-10.264663 15.481906 1.7626598 1.1340046e-38
-10.264904 15.485666 1.7625076 1.1340411e-38
-10.265144 15.489428 1.7623553 9.6816117e-39
-10.265386 15.493188 1.7622032 7.7447846e-39
-10.265627 15.496948 1.7620509 7.4678348e-39
-10.265867 15.50071 1.7618988 7.8351726e-39
-10.266109 15.50447 1.7617466 8.1103189e-39
-10.26635 15.50823 1.7615944 8.5705782e-39
-10.266591 15.511992 1.7614419 8.754615e-39
-10.266831 15.515752 1.7612897 8.6624221e-39
-10.267073 15.519512 1.7611375 8.8468134e-39
-10.267314 15.523273 1.7609855 8.939009e-39
-10.267554 15.527034 1.7608333 8.4787497e-39
-10.267796 15.530794 1.760681 8.5709426e-39
-10.252434 15.454449 1.7587671 8.9393621e-39
-10.252674 15.458189 1.7586157 8.5712971e-39
-10.252913 15.461928 1.7584643 8.4798175e-39
-10.253154 15.465669 1.7583129 8.7560415e-39
-10.253393 15.469409 1.7581617 8.8482343e-39
-10.253633 15.473149 1.7580101 8.7556771e-39
-10.253872 15.476889 1.7578589 8.6638416e-39
-10.254112 15.480629 1.7577074 9.2177357e-39
-10.254352 15.484369 1.757556 9.7719955e-39
-10.254591 15.48811 1.7574047 1.1063459e-38
-10.265189 15.485497 1.7587508 1.1156376e-38
-10.265429 15.489257 1.7585987 9.6808901e-39
-10.265671 15.493017 1.7584462 7.9291731e-39
-10.265912 15.496778 1.7582941 7.7433399e-39
-10.266152 15.500539 1.7581418 8.0195638e-39
-10.266394 15.504299 1.7579896 8.2025146e-39
-10.266635 15.50806 1.7578374 8.5705782e-39
-10.266875 15.511821 1.7576853 8.5705796e-39
-10.267117 15.515581 1.757533 8.4780281e-39
-10.267358 15.519342 1.757381 8.6624193e-39
-10.267599 15.523103 1.7572286 8.754615e-39
-10.267839 15.526863 1.7570764 8.2943557e-39
-10.268081 15.530624 1.7569242 8.2943557e-39
-10.252718 15.454279 1.7550308 9.0315564e-39
-10.252957 15.458019 1.7548794 8.847884e-39
-10.253197 15.46176 1.7547281 8.6634899e-39
-10.253437 15.4655 1.7545768 8.663127e-39
-10.253676 15.46924 1.7544253 8.6631242e-39
-10.253916 15.47298 1.754274 8.7545981e-39
-10.254156 15.47672 1.7541224 8.7556771e-39
-10.26475 15.474044 1.7554507 9.4014081e-39
-10.264992 15.477805 1.7552984 1.0048219e-38
-10.265233 15.481565 1.7551461 1.1154933e-38
-10.265473 15.485326 1.7549939 1.1064178e-38
-10.265715 15.489086 1.7548417 9.681246e-39
-10.265955 15.492847 1.7546896 7.929529e-39
-10.277804 15.489559 1.7561889 7.8355355e-39
-10.266438 15.500368 1.7543852 8.2032334e-39
-10.266679 15.504129 1.7542329 8.2947074e-39
-10.26692 15.50789 1.7540805 8.5705754e-39
-10.26716 15.51165 1.7539284 8.5705782e-39
-10.267402 15.515411 1.7537763 8.478384e-39
-10.267643 15.519172 1.753624 8.5705796e-39
-10.257511 15.529081 1.7520032 8.6627753e-39
-10.268125 15.526693 1.7533196 8.2021572e-39
-10.268366 15.530454 1.7531674 8.2021572e-39
-10.253001 15.45411 1.7512945 8.7549695e-39
-10.253241 15.45785 1.7511431 8.847884e-39
-10.25348 15.46159 1.7509918 8.5712943e-39
-10.25372 15.46533 1.7508404 8.4787357e-39
-10.25396 15.46907 1.7506891 8.4790903e-39
-10.254199 15.472811 1.7505375 8.6623997e-39
-10.254439 15.47655 1.7503862 8.6634787e-39
-10.254679 15.48029 1.7502347 9.4014067e-39
-10.254918 15.484031 1.7500834 9.956021e-39
-10.255158 15.487771 1.7499322 1.1062734e-38
-10.265759 15.485156 1.7512372 1.1063816e-38
-10.266 15.488916 1.751085 9.5890476e-39
-10.26624 15.492677 1.7509328 7.8366117e-39
-10.266481 15.496438 1.7507805 7.7436958e-39
-10.266723 15.500198 1.7506284 8.1110378e-39
-10.266964 15.503959 1.750476 8.2939885e-39
-10.256836 15.513951 1.7488724 8.5709314e-39
-10.257075 15.517692 1.7487209 8.7549667e-39
-10.267687 15.515241 1.7500196 8.6627739e-39
-10.257555 15.525172 1.7484182 8.7549695e-39
-10.253284 15.45394 1.7475582 8.6627711e-39
-10.253524 15.457681 1.747407 8.6634927e-39
-10.253764 15.461421 1.7472554 8.386903e-39
-10.254004 15.46516 1.747104 8.3865401e-39
-10.254243 15.468901 1.7469527 8.6624025e-39
-10.254482 15.472641 1.7468014 8.6623997e-39
-10.254723 15.476381 1.74665 8.6634787e-39
-10.254962 15.480122 1.7464986 9.2173714e-39
-10.255202 15.483862 1.7463472 9.8631037e-39
-10.265802 15.481224 1.7476327 1.106309e-38
-10.266044 15.484985 1.7474804 1.1063816e-38
-10.266285 15.488746 1.7473282 9.4968519e-39
-10.266525 15.492506 1.7471758 7.7444161e-39
-10.266767 15.496267 1.7470237 7.6507813e-39
-10.267008 15.500028 1.7468715 7.9266466e-39
-10.267249 15.503788 1.7467195 8.2017929e-39
-10.267489 15.507549 1.7465671 8.662048e-39
-10.257359 15.517523 1.7449846 8.7549667e-39
-10.267972 15.51507 1.7462626 8.6627711e-39
-10.257838 15.525002 1.7446818 8.7549667e-39
-10.253568 15.453772 1.7438221 8.663127e-39
-10.253808 15.457511 1.7436706 8.4794546e-39
-10.254047 15.461251 1.7435192 8.2950633e-39
-10.254287 15.464992 1.7433678 8.3865373e-39
-10.254527 15.468732 1.7432164 8.7545981e-39
-10.254766 15.472472 1.7430651 8.846791e-39
-10.255006 15.476212 1.7429137 8.9389866e-39
-10.255245 15.479952 1.7427623 9.2166553e-39
-10.255486 15.483692 1.7426109 9.5865182e-39
-10.255725 15.487432 1.7424595 1.1062734e-38
-10.266329 15.484815 1.7437236 1.0971263e-38
-10.266569 15.488576 1.7435713 9.4961359e-39
-10.26681 15.492336 1.7434193 7.6522233e-39
-10.267052 15.496097 1.7432671 7.5585857e-39
-10.267293 15.499857 1.7431148 7.8344509e-39
-10.267533 15.503618 1.7429625 8.1095973e-39
-10.267775 15.507379 1.7428102 8.6620508e-39
-10.268016 15.511139 1.742658 8.5705754e-39
-10.268257 15.5149 1.7425058 8.4783798e-39
-10.258121 15.524834 1.7409457 8.5705782e-39
-10.253851 15.453602 1.7400857 8.6634759e-39
-10.25409 15.457342 1.7399343 8.6645577e-39
-10.254331 15.461082 1.739783 8.4801665e-39
-10.25457 15.464822 1.7396315 8.6634787e-39
-10.25481 15.468562 1.7394801 8.7556743e-39
-10.25505 15.472302 1.7393287 8.846791e-39
-10.255289 15.476042 1.7391775 8.9389894e-39
-10.255529 15.479782 1.739026 9.3084964e-39
-10.255769 15.483522 1.7388747 9.8620359e-39
-10.256008 15.487263 1.7387233 1.0508849e-38
-10.266614 15.484645 1.7399669 1.0694326e-38
-10.266855 15.488405 1.7398146 9.5879784e-39
-10.267096 15.492166 1.7396623 7.8362614e-39
-10.267337 15.495927 1.7395102 7.5582326e-39
-10.267577 15.499687 1.7393579 7.7419008e-39
-10.267818 15.503448 1.7392056 8.0174044e-39
-10.26806 15.507209 1.7390536 8.4783826e-39
-10.2683 15.510969 1.7389013 8.386187e-39
-10.268542 15.514729 1.7387491 8.4783826e-39
-10.268783 15.518491 1.7385968 8.6627753e-39
-10.254135 15.453432 1.7363495 8.6638318e-39
-10.254375 15.457172 1.7361982 8.6649136e-39
-10.254614 15.460913 1.7360467 8.4805224e-39
-10.254853 15.464653 1.7358953 8.5719991e-39
-10.255094 15.468392 1.7357438 8.7556715e-39
-10.255333 15.472133 1.7355925 8.846791e-39
-10.255572 15.475873 1.735441 8.8467938e-39
-10.266175 15.473192 1.7366667 9.2159448e-39
-10.266417 15.476953 1.7365143 9.8616786e-39
-10.266658 15.480714 1.7363622 1.0692887e-38
-10.266899 15.484474 1.73621 1.1062031e-38
-10.267139 15.488235 1.7360578 9.6801782e-39
-10.267381 15.491996 1.7359055 7.9284584e-39
-10.267622 15.495756 1.7357535 7.650431e-39
-10.267862 15.499516 1.7356011 7.8340964e-39
-10.268104 15.503278 1.735449 8.017766e-39
-10.268345 15.507038 1.7352966 8.5705782e-39
-10.268586 15.510798 1.7351445 8.5705796e-39
-10.268826 15.51456 1.7349923 8.5705796e-39
-10.269068 15.51832 1.73484 8.6627753e-39
-10.254418 15.453263 1.7326133 8.4798007e-39
-10.254658 15.457003 1.7324617 8.572718e-39
-10.254897 15.460743 1.7323104 8.4805224e-39
-10.255137 15.464483 1.7321589 8.5719991e-39
-10.255377 15.468224 1.7320076 8.7556715e-39
-10.255616 15.471964 1.7318561 8.846791e-39
-10.255857 15.475703 1.7317048 8.8467938e-39
-10.256096 15.479444 1.7315533 9.2159448e-39
-10.256335 15.483184 1.7314019 9.769483e-39
-10.266943 15.480543 1.7326055 1.0877278e-38
-10.267183 15.484304 1.7324532 1.1246422e-38
-10.267425 15.488065 1.732301 9.8645695e-39
-10.267666 15.491825 1.7321488 7.9284584e-39
-10.267906 15.495585 1.7319965 7.650431e-39
-10.268147 15.499347 1.7318444 7.926292e-39
-10.268389 15.503107 1.7316921 8.2021572e-39
-10.26863 15.506867 1.73154 8.7549695e-39
-10.26887 15.510629 1.7313876 8.5705796e-39
-10.269112 15.514389 1.7312354 8.6627753e-39
-10.269353 15.51815 1.7310833 8.7549709e-39
-10.254702 15.453094 1.7288767 8.5719963e-39
-10.254941 15.456834 1.7287256 8.572718e-39
-10.255181 15.460573 1.728574 8.3883268e-39
-10.255421 15.464314 1.7284228 8.5719991e-39
-10.25566 15.468054 1.7282714 8.7556715e-39
-10.2559 15.471794 1.72812 8.846791e-39
-10.25614 15.475534 1.7279685 8.8467938e-39
-10.256379 15.479274 1.7278171 9.2159448e-39
-10.256619 15.483014 1.7276657 9.769483e-39
-10.256859 15.486754 1.7275144 1.0969474e-38
-10.267468 15.484134 1.7286965 1.1246422e-38
-10.26771 15.487894 1.7285441 9.8645695e-39
-10.257578 15.497974 1.7270601 7.9284584e-39
-10.257817 15.501715 1.7269088 7.650431e-39
-10.258058 15.505455 1.7267575 7.926292e-39
-10.258297 15.509195 1.726606 8.1099616e-39
-10.268914 15.506698 1.7277831 8.7549695e-39
-10.258777 15.516676 1.7263032 8.478384e-39
-10.259016 15.520415 1.7261519 8.5705796e-39
-10.269638 15.51798 1.7273264 8.7549709e-39
-10.265344 15.446357 1.7264619 8.6649108e-39
-10.265584 15.450117 1.7263095 8.2968514e-39
-10.255465 15.460404 1.7248378 8.3883268e-39
-10.255704 15.464145 1.7246865 8.5719991e-39
-10.255943 15.467885 1.7245351 8.7556715e-39
-10.256184 15.471624 1.7243836 8.9389866e-39
-10.256423 15.475365 1.7242322 8.8467938e-39
-10.256663 15.479105 1.7240808 9.1237492e-39
-10.256903 15.482845 1.7239295 9.6772873e-39
-10.257142 15.486586 1.723778 1.0877278e-38
-10.267754 15.483963 1.7249396 1.1246422e-38
-10.267994 15.487724 1.7247875 9.7723738e-39
-10.268236 15.491485 1.7246351 7.9284612e-39
-10.258101 15.501546 1.7231725 7.6504324e-39
-10.258341 15.505286 1.7230211 7.8340992e-39
-10.255268 15.452755 1.7214042 8.4815986e-39
-10.265869 15.449947 1.7225529 8.2046558e-39
-10.255748 15.460235 1.7211015 8.2961311e-39
-10.255987 15.463975 1.72095 8.4798035e-39
-10.256227 15.467715 1.7207989 8.8478672e-39
-10.256467 15.471456 1.7206475 8.9389866e-39
-10.256706 15.475195 1.7204959 8.8467938e-39
-10.256946 15.478935 1.7203447 9.0315536e-39
-10.257186 15.482676 1.7201931 9.5850917e-39
-10.257425 15.486416 1.7200419 1.0785082e-38
-10.257666 15.490156 1.7198904 1.1246422e-38
-10.268279 15.487554 1.7210306 9.8642135e-39
-10.258144 15.497636 1.7195876 8.0206569e-39
-10.258385 15.501376 1.7194363 7.742628e-39
-10.258624 15.505116 1.7192849 7.8340992e-39
-10.265914 15.446016 1.7189481 8.2968514e-39
-10.266154 15.449777 1.718796 8.1124601e-39
-10.266396 15.453537 1.7186438 8.2961311e-39
-10.266637 15.457298 1.7184916 8.4798035e-39
-10.256511 15.467546 1.7170622 8.8478672e-39
-10.25675 15.471286 1.7169111 8.9389866e-39
-10.256989 15.475026 1.7167597 8.8464364e-39
-10.2676 15.472341 1.7178828 9.0315536e-39
-10.257469 15.482506 1.716457 9.4928961e-39
-10.25771 15.486246 1.7163056 1.0785082e-38
-10.268324 15.483623 1.7174261 1.1246422e-38
-10.268564 15.487383 1.7172737 1.0048605e-38
-10.268806 15.491144 1.7171216 8.2972438e-39
-10.258668 15.501206 1.7156999 7.9270179e-39
-10.258907 15.504947 1.7155486 7.926292e-39
-10.269528 15.502426 1.716665 7.9255704e-39
-10.26977 15.506186 1.7165128 8.2939927e-39
-10.270011 15.509947 1.7163604 8.754615e-39
-10.270251 15.513708 1.7162083 8.7546178e-39
-10.255836 15.452416 1.7139318 7.9287877e-39
-10.256075 15.456156 1.7137803 8.1124601e-39
-10.256315 15.459896 1.713629 8.2961311e-39
-10.256555 15.463636 1.7134774 8.4798035e-39
-10.256794 15.467377 1.7133261 8.84787e-39
-10.257033 15.471116 1.7131747 8.9389894e-39
-10.267645 15.46841 1.7142782 8.8464364e-39
-10.267885 15.472171 1.7141259 9.0315536e-39
-10.257752 15.482337 1.7127208 9.4928961e-39
-10.268368 15.479692 1.7138215 1.0877278e-38
-10.268609 15.483452 1.7136692 1.1338618e-38
-10.268849 15.487213 1.7135171 1.0141156e-38
-10.269091 15.490973 1.7133647 8.481635e-39
-10.269331 15.494734 1.7132126 8.1114092e-39
-10.259192 15.504778 1.7118123 8.1106833e-39
-10.269814 15.502255 1.7129081 8.017766e-39
-10.270055 15.506016 1.7127559 8.2939913e-39
-10.270295 15.509777 1.7126038 8.5702237e-39
-10.270536 15.513537 1.7124515 8.6624221e-39
-10.256119 15.452247 1.7101954 8.0209862e-39
-10.256358 15.455987 1.7100441 8.3890498e-39
-10.256598 15.459726 1.7098926 8.4801665e-39
-10.256838 15.463467 1.7097412 8.5720019e-39
-10.257078 15.467207 1.7095898 8.7556743e-39
-10.257318 15.470947 1.7094384 8.8467938e-39
-10.26793 15.468239 1.7105213 8.7542408e-39
-10.26817 15.472 1.7103691 8.9393607e-39
-10.258037 15.482167 1.7089844 9.4928989e-39
-10.268653 15.479521 1.7100646 1.1153865e-38
-10.268893 15.483282 1.7099125 1.1523009e-38
-10.269135 15.487042 1.7097602 1.0048961e-38
-10.269376 15.490803 1.709608 8.1128497e-39
-10.269616 15.494564 1.7094557 7.7426266e-39
-10.259475 15.504608 1.708076 7.8340964e-39
-10.270099 15.502086 1.7091514 7.9259277e-39
-10.270339 15.505846 1.7089993 8.4783826e-39
-10.27058 15.509606 1.7088469 8.5702237e-39
-10.260433 15.519568 1.7074705 8.4780281e-39
-10.256402 15.452077 1.7064593 8.2050215e-39
-10.256642 15.455817 1.7063078 8.296857e-39
-10.256882 15.459558 1.7061564 8.2957752e-39
-10.257121 15.463298 1.706005 8.4798063e-39
-10.257361 15.467037 1.7058536 8.6634787e-39
-10.257601 15.470778 1.7057022 8.7545981e-39
-10.25784 15.474518 1.7055509 8.6620452e-39
-10.25808 15.478258 1.7053994 8.8471651e-39
-10.25832 15.481998 1.705248 9.4007032e-39
-10.268937 15.479351 1.7063078 1.0324104e-38
-10.269178 15.483111 1.7061557 1.0785444e-38
-10.26942 15.486873 1.7060034 9.6801782e-39
-10.269661 15.490633 1.7058512 8.0206541e-39
-10.269901 15.494393 1.705699 7.8348223e-39
-10.270143 15.498154 1.7055469 8.0184877e-39
-10.270384 15.501915 1.7053945 8.1103189e-39
-10.270624 15.505675 1.7052423 8.5705754e-39
-10.270865 15.509437 1.70509 8.7549709e-39
-10.271107 15.513197 1.7049379 8.5702237e-39
-10.256685 15.451908 1.7027228 8.2972185e-39
-10.256926 15.455647 1.7025714 8.2046614e-39
-10.257165 15.459388 1.7024201 8.295778e-39
-10.257404 15.463128 1.7022686 8.3872548e-39
-10.257645 15.466868 1.7021173 8.5712859e-39
-10.257884 15.470609 1.701966 8.6620452e-39
-10.258123 15.474348 1.7018145 8.5698524e-39
-10.258364 15.478088 1.7016631 8.7549695e-39
-10.258603 15.481829 1.7015117 9.3085076e-39
-10.258842 15.485569 1.7013603 1.0139713e-38
-10.269464 15.482942 1.7023989 1.0693248e-38
-10.269705 15.486702 1.7022467 9.5879826e-39
-10.269945 15.490462 1.7020944 8.0206541e-39
-10.270186 15.494224 1.7019423 7.9270151e-39
-10.270428 15.497984 1.70179 8.1106805e-39
-10.270668 15.501744 1.7016379 8.2025118e-39
-10.270909 15.505506 1.7014855 8.6627711e-39
-10.271151 15.509266 1.7013334 8.7549709e-39
-10.271392 15.513026 1.7011812 8.478384e-39
-10.256969 15.451738 1.6989864 8.2050257e-39
-10.257209 15.455479 1.6988351 8.204304e-39
-10.257448 15.459219 1.6986837 8.295778e-39
-10.257689 15.462958 1.6985325 8.3872548e-39
-10.257928 15.466699 1.6983811 8.5712859e-39
-10.258167 15.470439 1.6982297 8.6620452e-39
-10.258408 15.474179 1.6980782 8.5698524e-39
-10.258647 15.477919 1.6979269 8.8471651e-39
-10.269267 15.475249 1.6989466 9.4007032e-39
-10.259126 15.485399 1.6976241 1.0877278e-38
-10.269749 15.482771 1.698642 1.1338618e-38
-10.26999 15.486531 1.6984898 9.9567651e-39
-10.27023 15.490293 1.6983377 8.2050453e-39
-10.270472 15.494053 1.6981854 7.9270151e-39
-10.270713 15.497813 1.6980332 8.0184848e-39
-10.270953 15.501575 1.697881 8.0181205e-39
-10.271194 15.505335 1.6977289 8.4787357e-39
-10.271436 15.509095 1.6975764 8.5705782e-39
-10.271677 15.512856 1.6974242 8.2017971e-39
-10.257253 15.451569 1.6952503 8.3886981e-39
-10.257492 15.455309 1.6950988 8.3886981e-39
-10.257732 15.459049 1.6949475 8.387975e-39
-10.257972 15.46279 1.6947961 8.5716474e-39
-10.258211 15.466529 1.6946447 8.7553198e-39
-10.258451 15.470269 1.6944933 8.7542436e-39
-10.258691 15.47401 1.694342 8.7542464e-39
-10.25893 15.47775 1.6941905 8.9393607e-39
-10.25917 15.48149 1.6940392 9.4928989e-39
-10.25941 15.485229 1.6938878 1.1338256e-38
-10.259649 15.48897 1.6937364 1.1615205e-38
-10.270274 15.486362 1.6947331 1.0048958e-38
-10.270515 15.490122 1.6945809 8.0206527e-39
-10.270757 15.493883 1.6944286 7.5585885e-39
-10.270998 15.497643 1.6942763 7.7422553e-39
-10.271238 15.501404 1.6941241 7.9262808e-39
-10.27148 15.505164 1.693972 8.4787357e-39
-10.271721 15.508925 1.6938198 8.5705782e-39
-10.271961 15.512686 1.6936675 8.2017957e-39
-10.257536 15.4514 1.6915139 8.4808965e-39
-10.257775 15.455139 1.6913626 8.3886981e-39
-10.258016 15.458879 1.6912112 8.4798147e-39
-10.258255 15.46262 1.6910598 8.5716474e-39
-10.258494 15.46636 1.6909084 8.7553198e-39
-10.258735 15.4701 1.6907572 8.8464392e-39
-10.258974 15.47384 1.6906056 8.7542464e-39
-10.259213 15.47758 1.6904544 9.0315564e-39
-10.259454 15.48132 1.6903028 9.4928989e-39
-10.259693 15.485061 1.6901516 1.1153865e-38
-10.259933 15.488801 1.6899999 1.1338618e-38
-10.270559 15.486191 1.6909763 9.6801754e-39
-10.270801 15.489951 1.6908239 7.6518701e-39
-10.271042 15.493712 1.6906719 7.3741972e-39
-10.271282 15.497473 1.6905196 7.6500597e-39
-10.271523 15.501234 1.6903675 8.0184764e-39
-10.271765 15.504994 1.6902152 8.6631242e-39
-10.272006 15.508755 1.690063 8.6627711e-39
-10.272246 15.512515 1.6899107 8.4783798e-39
-10.272488 15.516276 1.6897584 8.5705754e-39
-10.257819 15.45123 1.6877776 8.6642088e-39
-10.258059 15.45497 1.6876264 8.2965025e-39
-10.258299 15.458711 1.687475 8.3876191e-39
-10.258538 15.46245 1.6873235 8.4794546e-39
-10.258778 15.46619 1.6871722 8.663127e-39
-10.259018 15.469931 1.6870207 8.7542436e-39
-10.259257 15.473671 1.6868695 8.6620508e-39
-10.259498 15.477411 1.686718 8.9393621e-39
-10.259737 15.481152 1.6865667 9.400706e-39
-10.259976 15.484891 1.6864153 1.0877278e-38
-10.260217 15.488631 1.6862638 1.1154226e-38
-10.270844 15.486021 1.6872195 9.6801754e-39
-10.271085 15.489781 1.6870674 7.7440658e-39
-10.271327 15.493542 1.686915 7.4663929e-39
-10.271567 15.497302 1.6867629 7.7422553e-39
-10.271809 15.501063 1.6866105 8.0184736e-39
-10.27205 15.504824 1.6864583 8.6631242e-39
-10.27229 15.508585 1.6863062 8.5705754e-39
-10.272532 15.512345 1.6861539 8.4783798e-39
-10.272773 15.516106 1.6860018 8.7549667e-39
-10.258102 15.451061 1.6840415 8.3876191e-39
-10.258343 15.454801 1.6838901 8.2043096e-39
-10.258582 15.458541 1.6837387 8.2954263e-39
-10.258821 15.462281 1.6835872 8.387259e-39
-10.259062 15.466022 1.6834358 8.5709314e-39
-10.259301 15.469762 1.6832845 8.662048e-39
-10.259541 15.473501 1.6831331 8.5698552e-39
-10.259781 15.477242 1.6829818 8.8471651e-39
-10.26002 15.480982 1.6828305 9.3085076e-39
-10.260261 15.484722 1.6826791 1.1061669e-38
-10.2605 15.488462 1.6825275 1.1431171e-38
-10.260739 15.492202 1.6823761 9.9567609e-39
-10.26098 15.495942 1.6822248 8.1132042e-39
-10.261219 15.499682 1.6820735 7.742977e-39
-10.261458 15.503423 1.681922 7.9266437e-39
-10.261698 15.507162 1.6817706 8.0184736e-39
-10.261938 15.510902 1.6816193 8.5712859e-39
-10.262177 15.514643 1.6814679 8.3865401e-39
-10.272817 15.512175 1.6823971 8.3865401e-39
-10.262657 15.522123 1.6811651 8.6631242e-39
-10.258387 15.450891 1.6803051 8.6645605e-39
-10.258626 15.454631 1.6801538 8.2965053e-39
-10.258865 15.458371 1.6800025 8.2032334e-39
-10.259106 15.462111 1.6798509 8.1103161e-39
-10.259345 15.465852 1.6796995 8.3861842e-39
-10.259584 15.469592 1.6795483 8.662048e-39
-10.259825 15.473331 1.6793967 8.7542436e-39
-10.260064 15.477072 1.6792455 9.2159448e-39
-10.260303 15.480812 1.679094 9.7698403e-39
-10.260543 15.484552 1.6789427 1.0969827e-38
-10.271173 15.481919 1.679858 1.097019e-38
-10.261023 15.492032 1.6786399 9.5883343e-39
-10.261263 15.495772 1.6784886 8.205397e-39
-10.261502 15.499513 1.6783371 8.1117581e-39
-10.261742 15.503253 1.6781858 7.9266409e-39
-10.261982 15.506993 1.6780343 7.834081e-39
-10.262221 15.510733 1.6778829 8.3868946e-39
-10.262461 15.514473 1.6777316 8.5698524e-39
-10.262701 15.518213 1.6775802 8.8464364e-39
-10.26294 15.521954 1.6774288 9.1233807e-39
-10.25867 15.450722 1.6765689 8.2957752e-39
-10.258909 15.454462 1.6764175 8.2043096e-39
-10.259149 15.458202 1.6762661 8.1110378e-39
-10.259389 15.461943 1.6761147 8.2025118e-39
-10.259628 15.465682 1.6759634 8.3865401e-39
-10.259869 15.469422 1.6758119 8.662048e-39
-10.260108 15.473163 1.6756606 8.7542436e-39
-10.260347 15.476903 1.675509 9.1237492e-39
-10.260588 15.480643 1.6753577 9.585449e-39
-10.260827 15.484384 1.6752062 1.1246411e-38
-10.271459 15.48175 1.6761014 1.1246774e-38
-10.2717 15.48551 1.6759491 9.8649184e-39
-10.27194 15.48927 1.6757969 8.4819811e-39
-10.261786 15.499344 1.6746007 8.2965053e-39
-10.262025 15.503083 1.6744494 8.2035838e-39
-10.262265 15.506824 1.674298 8.1106679e-39
-10.262505 15.510564 1.6741467 8.6634815e-39
-10.262745 15.514304 1.6739953 8.662048e-39
-10.262984 15.518044 1.673844 8.8464364e-39
-10.263224 15.521784 1.6736926 9.1233779e-39
-10.258953 15.450553 1.6728325 8.1113839e-39
-10.259192 15.454292 1.6726811 8.112114e-39
-10.259433 15.458033 1.6725298 8.1110378e-39
-10.259672 15.461773 1.6723785 8.2025118e-39
-10.259912 15.465513 1.672227 8.5709314e-39
-10.260151 15.469254 1.6720757 8.8464392e-39
-10.260391 15.472993 1.6719241 8.8464392e-39
-10.260631 15.476733 1.6717728 9.0315536e-39
-10.260871 15.480474 1.6716214 9.4010578e-39
-10.26111 15.484214 1.67147 1.106202e-38
-10.271744 15.481579 1.6723444 1.1246774e-38
-10.271984 15.485339 1.6721922 9.8649184e-39
-10.272225 15.4891 1.6720401 8.3897855e-39
-10.272467 15.492861 1.671888 8.2039537e-39
-10.262309 15.502914 1.6707131 8.1110322e-39
-10.272948 15.500382 1.6715834 8.1106693e-39
-10.262788 15.510394 1.6704104 8.5712859e-39
-10.263027 15.514134 1.670259 8.662048e-39
-10.263268 15.517875 1.6701076 8.8464392e-39
-10.263507 15.521615 1.6699562 9.031185e-39
-10.259236 15.450383 1.6690962 8.2035796e-39
-10.259477 15.454123 1.6689448 8.1121112e-39
-10.259716 15.457864 1.6687936 8.2032306e-39
-10.259955 15.461604 1.668642 8.387259e-39
-10.260195 15.465343 1.6684909 8.7553198e-39
-10.260435 15.469084 1.6683394 9.0308277e-39
-10.260674 15.472824 1.6681881 8.9386321e-39
-10.260915 15.476563 1.6680365 9.0319095e-39
-10.261154 15.480305 1.6678852 9.4010578e-39
-10.261394 15.484044 1.6677338 1.0508846e-38
-10.272029 15.481408 1.6685877 1.0877991e-38
-10.272269 15.485169 1.6684356 9.5883315e-39
-10.272511 15.48893 1.6682833 7.9288102e-39
-10.272752 15.49269 1.668131 7.6507799e-39
-10.262592 15.502745 1.6669769 7.7422525e-39
-10.273233 15.500212 1.6678267 7.7418867e-39
-10.263071 15.510225 1.6666741 8.202146e-39
-10.263311 15.513966 1.6665226 8.4776595e-39
-10.263551 15.517706 1.6663712 8.6620508e-39
-10.26379 15.521445 1.6662199 8.8464364e-39
-10.25952 15.450213 1.66536 8.2957752e-39
-10.25976 15.453954 1.6652086 8.204304e-39
-10.259999 15.457694 1.6650572 8.2957794e-39
-10.260239 15.461434 1.6649059 8.5716474e-39
-10.260479 15.465175 1.6647544 8.9400684e-39
-10.260718 15.468914 1.6646031 9.1233807e-39
-10.260958 15.472654 1.6644517 9.031185e-39
-10.27159 15.469956 1.6652876 9.0319095e-39
-10.261437 15.480135 1.6641489 9.401055e-39
-10.261677 15.483874 1.6639975 1.041665e-38
-10.272313 15.481238 1.6648309 1.0970187e-38
-10.272554 15.484999 1.6646786 9.6805299e-39
-10.272796 15.488759 1.6645265 7.9288102e-39
-10.273037 15.49252 1.6643744 7.5585857e-39
-10.262876 15.502576 1.6632406 7.6500597e-39
-10.273519 15.500041 1.6640698 7.7418896e-39
-10.263355 15.510056 1.6629379 8.1099532e-39
-10.263595 15.513796 1.6627865 8.2929123e-39
-10.263834 15.517536 1.662635 8.4773036e-39
-10.264074 15.521276 1.6624836 8.662048e-39
-10.259803 15.450045 1.6616237 8.2957752e-39
-10.260043 15.453784 1.6614723 8.296857e-39
-10.260283 15.457524 1.6613209 8.295778e-39
-10.260523 15.461265 1.6611696 8.571646e-39
-10.260762 15.465005 1.661018 8.9400656e-39
-10.261002 15.468745 1.6608667 9.1233779e-39
-10.261241 15.472485 1.6607155 9.0311822e-39
-10.271875 15.469786 1.6615307 9.0319067e-39
-10.261721 15.479965 1.6604127 9.3088593e-39
-10.261961 15.483706 1.6602613 1.0601041e-38
-10.272598 15.481068 1.6610742 1.1338969e-38
-10.27284 15.484828 1.6609219 1.0141508e-38
-10.273081 15.488589 1.6607698 8.2053998e-39
-10.273321 15.49235 1.6606174 7.8351754e-39
-10.263159 15.502406 1.6595043 8.0188422e-39
-10.273804 15.499871 1.660313 8.1103161e-39
-10.263638 15.509886 1.6592015 8.4783798e-39
-10.263878 15.513626 1.6590501 8.2929137e-39
-10.264117 15.517366 1.6588987 8.3851094e-39
-10.264358 15.521107 1.6587473 8.6620508e-39
-10.260087 15.449875 1.6578875 8.2035796e-39
-10.260326 15.453615 1.6577361 8.2046586e-39
-10.260566 15.457355 1.6575847 8.2035796e-39
-10.260806 15.461096 1.6574332 8.3876107e-39
-10.261045 15.464835 1.6572819 8.6634759e-39
-10.261285 15.468575 1.6571304 8.8467882e-39
-10.261525 15.472316 1.6569791 8.7545953e-39
-10.272161 15.469616 1.6577741 8.8475154e-39
-10.262004 15.479796 1.6566764 9.2170196e-39
-10.262244 15.483536 1.656525 1.0601041e-38
-10.262484 15.487276 1.6563735 1.1431165e-38
-10.262723 15.491016 1.6562222 1.0325899e-38
-10.262963 15.494757 1.6560708 8.2975955e-39
-10.273606 15.492179 1.6568607 7.7429798e-39
-10.263442 15.502236 1.655768 8.0184848e-39
-10.263682 15.505977 1.6556166 8.2025146e-39
-10.263922 15.509717 1.6554654 8.4783826e-39
-10.264161 15.513457 1.6553138 8.4773078e-39
-10.264401 15.517198 1.6551625 8.5695034e-39
-10.264641 15.520937 1.6550112 8.7538905e-39
-10.26037 15.449706 1.6541512 8.2957752e-39
-10.26061 15.453445 1.6539999 8.1124629e-39
-10.26085 15.457186 1.6538484 8.1117399e-39
-10.261089 15.460926 1.653697 8.2032166e-39
-10.261329 15.464666 1.6535455 8.4790846e-39
-10.261568 15.468406 1.6533942 8.6623969e-39
-10.261808 15.472146 1.6532427 8.5702041e-39
-10.262048 15.475886 1.6530914 8.6634815e-39
-10.262288 15.479627 1.6529402 9.124824e-39
-10.262527 15.483367 1.6527886 1.0232259e-38
-10.262767 15.487107 1.6526372 1.1154578e-38
-10.263007 15.490847 1.652486 1.0048957e-38
-10.27365 15.488248 1.6532562 7.928813e-39
-10.273891 15.492009 1.6531038 7.4660369e-39
-10.263726 15.502068 1.6520317 7.741898e-39
-10.274374 15.499531 1.6527994 7.9259277e-39
-10.264205 15.509547 1.6517287 8.2017957e-39
-10.264445 15.513288 1.6515776 8.6616991e-39
-10.264685 15.517028 1.6514263 8.6616991e-39
-10.264924 15.520768 1.6512748 8.8460861e-39
-10.260653 15.449536 1.6504149 8.0191883e-39
-10.260893 15.453277 1.6502634 8.1124601e-39
-10.261133 15.457016 1.6501122 8.1117399e-39
-10.261373 15.460756 1.6499606 8.2954123e-39
-10.261612 15.464497 1.6498092 8.5716362e-39
-10.261852 15.468237 1.649658 8.7549485e-39
-10.262092 15.471976 1.6495066 8.6623969e-39
-10.262331 15.475717 1.6493551 8.6634815e-39
-10.262571 15.479457 1.6492037 9.0326284e-39
-10.262811 15.483197 1.6490523 1.0508846e-38
-10.26305 15.486938 1.6489011 1.06936e-38
-10.26329 15.490678 1.6487496 9.8645653e-39
-10.26353 15.494417 1.6485983 8.1132042e-39
-10.274177 15.491838 1.6493471 7.0972544e-39
-10.264009 15.501898 1.6482955 7.2809198e-39
-10.264249 15.505638 1.648144 7.8337321e-39
-10.264489 15.509377 1.6479926 8.1096015e-39
-10.264729 15.513118 1.6478412 8.93793e-39
-10.264968 15.516858 1.6476899 8.6613431e-39
-10.265207 15.520598 1.6475387 8.6616963e-39
-10.260937 15.449367 1.6466786 8.2035796e-39
-10.261177 15.453107 1.6465271 8.0202645e-39
-10.261416 15.456847 1.6463759 8.0195442e-39
-10.261656 15.460588 1.6462245 8.2032138e-39
-10.261896 15.464327 1.6460731 8.4794406e-39
-10.262136 15.468067 1.6459217 8.6627528e-39
-10.262375 15.471807 1.6457703 8.5702013e-39
-10.262615 15.475548 1.6456189 8.5712859e-39
-10.262855 15.479288 1.6454674 8.9404327e-39
-10.263094 15.483027 1.6453161 1.0324455e-38
-10.263334 15.486768 1.6451646 1.0601404e-38
-10.263574 15.490508 1.6450135 9.9571168e-39
-10.263813 15.494248 1.6448621 8.3897911e-39
-10.264052 15.497989 1.6447105 7.4663929e-39
-10.264293 15.501728 1.6445591 7.6497023e-39
-10.264532 15.505468 1.6444077 8.1103189e-39
-10.264772 15.509209 1.6442564 8.2017971e-39
-10.265012 15.512949 1.644105 8.8457344e-39
-10.265252 15.516689 1.6439536 8.6613431e-39
-10.265491 15.520429 1.6438023 8.6616963e-39
-10.261221 15.449198 1.6429423 8.3883268e-39
-10.26146 15.452937 1.6427909 8.1124601e-39
-10.2617 15.456677 1.6426394 8.1117399e-39
-10.25129 15.467102 1.6415995 8.2954095e-39
-10.251529 15.470821 1.641449 8.5716362e-39
-10.262419 15.467898 1.6421854 8.7549485e-39
-10.262658 15.471638 1.6420338 8.6623969e-39
-10.262898 15.475378 1.6418825 8.6634815e-39
-10.263138 15.479118 1.6417313 9.0326284e-39
-10.263378 15.482859 1.6415797 1.0232258e-38
-10.263618 15.486599 1.6414285 1.0601404e-38
-10.274264 15.483976 1.6421379 1.0141508e-38
-10.274506 15.487738 1.6419858 8.666378e-39
-10.264337 15.497819 1.6409743 7.8351754e-39
-10.264576 15.501559 1.6408229 7.9262892e-39
-10.264815 15.5053 1.6406715 8.2947102e-39
-10.265056 15.509039 1.6405201 8.386187e-39
-10.265295 15.512779 1.6403687 8.6616991e-39
-10.265534 15.51652 1.6402174 8.5695034e-39
-10.265775 15.52026 1.6400658 8.5695006e-39
-10.261504 15.449028 1.6392061 8.3883268e-39
-10.261744 15.452768 1.6390545 8.2968514e-39
-10.261983 15.456508 1.6389033 8.2961311e-39
-10.251573 15.466934 1.6378843 8.4798007e-39
-10.251811 15.470653 1.6377338 8.7560275e-39
-10.262703 15.467729 1.6384491 8.9393397e-39
-10.262942 15.471469 1.6382978 8.8467882e-39
-10.263182 15.475208 1.6381463 8.8478728e-39
-10.263422 15.478949 1.6379949 9.2170196e-39
-10.263661 15.482689 1.6378435 1.0416649e-38
-10.263901 15.486429 1.6376922 1.0786152e-38
-10.274549 15.483807 1.6383812 1.0141508e-38
-10.274791 15.487567 1.6382289 8.666378e-39
-10.275031 15.491327 1.6380768 7.7429798e-39
-10.275272 15.495089 1.6379244 7.8340936e-39
-10.275514 15.498849 1.6377722 8.2947074e-39
-10.275754 15.502609 1.6376201 8.4783798e-39
-10.265578 15.512609 1.6366326 8.5695034e-39
-10.265819 15.51635 1.6364809 8.4773078e-39
-10.266058 15.52009 1.6363297 8.5694992e-39
-10.261787 15.448858 1.6354697 8.3883268e-39
-10.262028 15.452599 1.6353184 8.2968514e-39
-10.251616 15.463046 1.6343194 8.2961311e-39
-10.251854 15.466765 1.634169 8.4798007e-39
-10.252092 15.470485 1.6340185 8.7560275e-39
-10.252331 15.474203 1.633868 8.9393397e-39
-10.263226 15.471299 1.6345614 8.8467882e-39
-10.263466 15.475039 1.63441 8.8478728e-39
-10.263705 15.47878 1.6342586 9.2170196e-39
-10.263945 15.48252 1.6341074 1.0693236e-38
-10.264185 15.486259 1.633956 1.0878347e-38
-10.274835 15.483636 1.6346244 1.0049312e-38
-10.275075 15.487397 1.6344721 8.3897883e-39
-10.275316 15.491158 1.6343199 7.3741944e-39
-10.275558 15.494918 1.6341677 7.557864e-39
-10.275799 15.498679 1.6340154 8.1106721e-39
-10.276039 15.502439 1.6338632 8.2943445e-39
-10.27628 15.5062 1.633711 8.3851094e-39
-10.276522 15.50996 1.633559 8.477305e-39
-10.266341 15.519921 1.6325934 8.6620508e-39
-10.266582 15.523661 1.632442 8.8464392e-39
-10.262071 15.448689 1.6317335 8.3883239e-39
-10.262311 15.452429 1.631582 8.1124601e-39
-10.26255 15.456169 1.6314307 8.1113839e-39
-10.252136 15.466597 1.6304537 8.2954123e-39
-10.252375 15.470316 1.6303033 8.5716362e-39
-10.263269 15.46739 1.6309764 8.7549485e-39
-10.263509 15.47113 1.630825 8.6623969e-39
-10.263749 15.47487 1.6306738 8.6634815e-39
-10.263988 15.47861 1.6305225 9.0326284e-39
-10.264228 15.48235 1.630371 1.0693236e-38
-10.274879 15.479705 1.6310198 1.0878347e-38
-10.275119 15.483466 1.6308675 9.957114e-39
-10.27536 15.487226 1.6307154 8.205397e-39
-10.275601 15.490987 1.6305631 7.1898032e-39
-10.275843 15.494748 1.6304108 7.37347e-39
-10.276083 15.498508 1.6302587 7.9262808e-39
-10.276324 15.502269 1.6301066 8.2021488e-39
-10.276566 15.50603 1.6299542 8.385108e-39
-10.276807 15.50979 1.629802 8.4773036e-39
-10.277047 15.513551 1.6296499 8.6620508e-39
-10.266865 15.523492 1.6287057 8.8464392e-39
-10.267104 15.527232 1.6285542 8.4787329e-39
-10.262354 15.44852 1.6279972 8.3883239e-39
-10.262594 15.45226 1.6278459 8.0202645e-39
-10.262834 15.456 1.6276945 8.0191883e-39
-10.263074 15.459741 1.6275429 8.2032166e-39
-10.252656 15.470148 1.6265879 8.4790846e-39
-10.252894 15.473866 1.6264374 8.6623969e-39
-10.263793 15.470961 1.6270888 8.5702041e-39
-10.264032 15.474701 1.6269375 8.5712859e-39
-10.264272 15.47844 1.6267861 8.9404327e-39
-10.264511 15.482181 1.6266347 1.0416649e-38
-10.275164 15.479535 1.6272629 1.0693956e-38
-10.275405 15.483295 1.6271107 9.957114e-39
-10.275645 15.487056 1.6269586 8.2975899e-39
-10.275887 15.490817 1.6268064 7.374193e-39
-10.276128 15.494577 1.6266541 7.5578584e-39
-10.276368 15.498339 1.6265018 8.0184736e-39
-10.276609 15.502099 1.6263497 8.202146e-39
-10.276851 15.505859 1.6261975 8.3854639e-39
-10.277091 15.50962 1.6260452 8.5698552e-39
-10.277332 15.513381 1.625893 8.7542436e-39
-10.267148 15.523322 1.6249695 8.8464364e-39
-10.267387 15.527062 1.6248181 8.3865373e-39
-10.262638 15.448351 1.6242608 8.2961311e-39
-10.262877 15.45209 1.6241096 8.295778e-39
-10.263117 15.455831 1.6239581 8.1113867e-39
-10.263357 15.459571 1.6238067 8.2950591e-39
-10.252938 15.469979 1.6228725 8.5712859e-39
-10.253177 15.473699 1.622722 8.5712859e-39
-10.264076 15.470791 1.6233525 8.4790903e-39
-10.264316 15.474531 1.6232011 8.5716474e-39
-10.264555 15.478271 1.6230497 8.9407957e-39
-10.264795 15.482012 1.6228985 1.0140062e-38
-10.275448 15.479364 1.6235063 1.0509565e-38
-10.275689 15.483125 1.623354 9.957114e-39
-10.27593 15.486886 1.6232017 8.4819811e-39
-10.276172 15.490646 1.6230496 7.5593046e-39
-10.276413 15.494407 1.6228973 7.5589402e-39
-10.276653 15.498168 1.622745 8.0188366e-39
-10.276895 15.501928 1.6225929 8.2028677e-39
-10.28881 15.498696 1.6232846 8.2939885e-39
-10.277376 15.50945 1.6222885 8.3861842e-39
-10.277617 15.51321 1.6221362 8.8464392e-39
-10.277859 15.516971 1.621984 8.6631242e-39
-10.278099 15.520732 1.6218318 8.3865373e-39
-10.262921 15.448181 1.6205245 8.2950591e-39
-10.263161 15.451921 1.620373 8.387259e-39
-10.263401 15.455661 1.6202219 8.5712943e-39
-10.26364 15.459401 1.6200703 8.7556856e-39
-10.25322 15.46981 1.6191573 8.5712943e-39
-10.264119 15.466882 1.6197677 8.2954263e-39
-10.264359 15.470622 1.6196163 8.3876219e-39
-10.264599 15.474361 1.6194649 8.6649319e-39
-10.264838 15.478102 1.6193134 9.0337144e-39
-10.265079 15.481842 1.6191621 1.0970543e-38
-10.275733 15.479195 1.6197494 1.0510288e-38
-10.275974 15.482955 1.6195972 9.4961359e-39
-10.276216 15.486715 1.6194448 8.1132014e-39
-10.276456 15.490477 1.6192927 7.2834407e-39
-10.276697 15.494237 1.6191406 7.466753e-39
-10.276938 15.497997 1.6189883 7.8351726e-39
-10.288854 15.494741 1.6196578 8.0188422e-39
-10.289096 15.498525 1.6195046 8.386903e-39
-10.277661 15.509279 1.6185317 8.2028677e-39
-10.277902 15.513041 1.6183794 8.2943417e-39
-10.278144 15.516801 1.6182271 8.4794518e-39
-10.278384 15.520561 1.618075 8.6638459e-39
-10.263205 15.448011 1.6167881 8.3865373e-39
-10.263444 15.451752 1.6166369 8.4783798e-39
-10.263684 15.455492 1.6164855 8.6627739e-39
-10.263924 15.459232 1.6163342 8.6634927e-39
-10.264163 15.462972 1.6161828 8.479463e-39
-10.264403 15.466712 1.6160314 8.2950717e-39
-10.264643 15.470452 1.61588 8.2039551e-39
-10.264882 15.474193 1.6157286 8.4812609e-39
-10.275537 15.471502 1.616297 8.9418831e-39
-10.265362 15.481672 1.6154258 1.0694679e-38
-10.276018 15.479024 1.6159925 1.0418092e-38
-10.276259 15.482784 1.6158403 9.4961359e-39
-10.2765 15.486546 1.6156882 8.205397e-39
-10.276741 15.490306 1.6155361 7.2834435e-39
-10.276982 15.494066 1.6153837 7.2834435e-39
-10.277224 15.497828 1.6152316 7.6511471e-39
-10.277464 15.501588 1.6150792 7.9273682e-39
-10.277705 15.505348 1.6149271 8.3876219e-39
-10.277946 15.509109 1.6147749 8.3872562e-39
-10.278187 15.51287 1.6146226 8.5716474e-39
-10.278428 15.51663 1.6144705 8.7560387e-39
-10.278669 15.520391 1.6143183 8.664206e-39
-10.263488 15.447843 1.613052 8.2943417e-39
-10.263727 15.451583 1.6129006 8.4787357e-39
-10.263968 15.455322 1.6127491 8.5705754e-39
-10.264207 15.459063 1.6125978 8.5712943e-39
-10.264446 15.462803 1.6124465 8.3876247e-39
-10.264687 15.466543 1.6122952 8.2950717e-39
-10.264926 15.470283 1.6121439 8.2039551e-39
-10.265165 15.474023 1.6119922 8.4809049e-39
-10.275822 15.471333 1.6125402 8.8496903e-39
-10.276062 15.475093 1.612388 1.0510291e-38
-10.276303 15.478853 1.6122358 1.0418095e-38
-10.276545 15.482615 1.6120837 9.5883343e-39
-10.266364 15.492723 1.6112354 8.2975955e-39
-10.266603 15.496464 1.6110841 7.2834407e-39
-10.266844 15.500204 1.6109326 7.1912451e-39
-10.267083 15.503944 1.6107813 7.6511443e-39
-10.277749 15.501417 1.6113225 7.9273682e-39
-10.267563 15.511424 1.6104785 8.2032306e-39
-10.267802 15.515164 1.6103271 8.4794546e-39
-10.278472 15.512699 1.6108658 8.6638459e-39
-10.278713 15.51646 1.6107136 8.8482371e-39
-10.278955 15.520221 1.6105614 8.5720104e-39
-10.253113 15.454429 1.6086136 8.3868946e-39
-10.264011 15.451413 1.6091644 8.4787329e-39
-10.253589 15.461867 1.6083125 8.4787357e-39
-10.26449 15.458893 1.6088616 8.4794546e-39
-10.26473 15.462633 1.6087102 8.386903e-39
-10.26497 15.466373 1.6085588 8.2032334e-39
-10.265209 15.470114 1.6084074 8.2039579e-39
-10.26545 15.473854 1.6082561 8.3887121e-39
-10.276106 15.471162 1.6087835 8.7574946e-39
-10.265928 15.481334 1.6079533 1.0233704e-38
-10.266169 15.485074 1.6078019 1.0325899e-38
-10.266408 15.488814 1.6076504 9.7727256e-39
-10.266647 15.492554 1.607499 8.3897911e-39
-10.266888 15.496294 1.6073476 7.2834407e-39
-10.267127 15.500034 1.6071963 7.0990467e-39
-10.267366 15.503775 1.6070451 7.5593032e-39
-10.267607 15.507514 1.6068935 7.9273668e-39
-10.267846 15.511255 1.6067421 7.9266437e-39
-10.268085 15.514995 1.6065906 8.2950633e-39
-10.278757 15.512529 1.6071091 8.5716502e-39
-10.278998 15.51629 1.6069568 8.6638459e-39
-10.279239 15.52005 1.6068047 8.2954235e-39
-10.253394 15.454261 1.6048982 8.4790875e-39
-10.253633 15.457979 1.6047479 8.4790903e-39
-10.253871 15.461699 1.6045972 8.3868946e-39
-10.254109 15.465418 1.6044468 8.2950605e-39
-10.265014 15.462464 1.6049739 8.2950633e-39
-10.265253 15.466204 1.6048224 8.2032334e-39
-10.265493 15.469944 1.6046711 8.2039579e-39
-10.265733 15.473684 1.6045197 8.3887121e-39
-10.276391 15.470991 1.6050267 8.5731062e-39
-10.266212 15.481164 1.6042171 9.9567609e-39
-10.266452 15.484904 1.6040655 1.0233348e-38
-10.266691 15.488645 1.6039141 9.8649212e-39
-10.256254 15.49889 1.603092 8.5741796e-39
-10.267171 15.496125 1.6036114 7.4671089e-39
-10.26741 15.499866 1.6034601 7.1905206e-39
-10.267651 15.503605 1.6033086 7.5593004e-39
-10.26789 15.507345 1.6031574 8.0199156e-39
-10.268129 15.511086 1.6030058 7.9266437e-39
-10.26837 15.514826 1.6028545 8.2025118e-39
-10.268609 15.518566 1.6027031 8.5712943e-39
-10.268848 15.522305 1.6025517 8.6634899e-39
-10.269088 15.526046 1.6024003 8.2032306e-39
