# .PCD v0.7 - Point Cloud Data file format
VERSION 0.7
FIELDS x y z rgb
SIZE 4 4 4 4
TYPE F F F F
COUNT 1 1 1 1
WIDTH 59
HEIGHT 1
VIEWPOINT 0 0 0 1 0 0 0
POINTS 59
DATA ascii
-5.0396166 4.5635138 0.79113883 2.7622395e-40
-4.9942036 4.5440006 0.79796928 3.6841958e-40
-5.2706456 4.6882248 0.73414826 1.8403673e-40
-5.1517563 4.6249943 0.77033013 9.2199834e-41
-4.7315993 4.3802943 0.95862567 7.361217e-40
-4.5694246 4.3138185 0.99088949 1.354734e-38
-5.0548668 4.5565014 0.95359564 2.7658409e-40
-4.8717165 4.4566021 0.96223414 5.5245491e-40
-4.7867489 4.4110594 0.95497662 6.4393168e-40
-5.2791872 4.6748519 0.91044271 2.7622676e-40
-5.157752 4.6122756 0.92786252 2.7622816e-40
-4.7160578 4.3711905 1.1077741 5.5245211e-40
-4.5677848 4.3076 1.0995547 1.1244261e-38
-5.0523629 4.5515776 1.0813651 7.3756644e-40
-4.8737836 4.4584966 1.0711718 4.6061661e-40
-4.7836952 4.410109 1.1034667 4.6025788e-40
-5.2742448 4.6671114 1.1658524 6.4465054e-40
-5.1350636 4.6174631 1.0410004 9.2198432e-41
-4.7086482 4.3661232 1.2924953 8.2832013e-40
-4.5636196 4.3010006 1.2997396 1.1980369e-38
-5.0838308 4.568141 1.2959083 7.3648464e-40
-4.893446 4.4672832 1.2886698 6.4464634e-40
-4.7857914 4.4083238 1.2899367 5.5245351e-40
-5.2491403 4.6451411 1.3234864 2.7623236e-40
-5.1681046 4.6092033 1.3276122 9.2159476e-40
-4.7000008 4.3595519 1.493547 7.3648464e-40
-4.5578585 4.2950468 1.4982109 1.2256592e-38
-5.1036911 4.5776515 1.4965732 5.5317238e-40
-4.9117851 4.4750886 1.4279957 5.5209478e-40
-4.7856359 4.4064975 1.4931139 5.5245631e-40
-5.2680984 4.6614208 1.4919031 1.8439406e-40
-5.1719975 4.6132736 1.4852771 4.6097815e-40
-4.7411036 4.3809571 1.6226822 6.4428901e-40
-4.5504465 4.2876487 1.6991932 1.2534986e-38
-5.0725546 4.5601487 1.616634 2.7623236e-40
-4.9453645 4.4906282 1.6742857 4.6061942e-40
-4.7809544 4.4048619 1.6129595 6.4428761e-40
-5.2899837 4.6765676 1.6106871 9.1843904e-41
-5.1364026 4.6067352 1.6340405 1.8474719e-40
-4.6903286 4.3531933 1.9004978 1.0127114e-39
-4.5479178 4.2831025 1.8966969 1.3273281e-38
-5.0346694 4.5352774 1.918961 3.6806365e-40
-4.9691367 4.5028005 1.892507 4.6062082e-40
-4.7883463 4.4063439 1.9057804 7.3684337e-40
-5.2363944 4.679121 1.8900023 9.219563e-41
-5.1349359 4.6229515 1.8552951 9.1836897e-41
-4.6777596 4.3436942 2.087199 6.4465054e-40
-4.5419345 4.277091 2.0586815 1.0600331e-38
-5.0373616 4.5347257 2.0405819 1.8403393e-40
-4.9754939 4.5035424 2.021733 1.8403393e-40
-4.7853608 4.40453 2.0756066 6.4464634e-40
-5.2362437 4.6778998 2.0464592 9.219563e-41
-5.140399 4.6260328 2.0228479 9.219563e-41
-4.7615733 4.3867831 2.2116292 1.8403253e-40
-5.0357232 4.5308285 2.2132785 2.7587223e-40
-4.9015059 4.4603701 2.2125816 1.8403393e-40
-4.7900796 4.4047408 2.209738 1.8403533e-40
-5.230454 4.6890249 2.2148619 9.219563e-41
-5.1467133 4.6416526 2.2131882 9.219563e-41
