# .PCD v0.7 - Point Cloud Data file format
VERSION 0.7
FIELDS x y z rgb
SIZE 4 4 4 4
TYPE F F F F
COUNT 1 1 1 1
WIDTH 1073
HEIGHT 1
VIEWPOINT 0 0 0 1 0 0 0
POINTS 1073
DATA ascii
-10.084821 17.57345 1.6367408 8.9440831e-39
-10.083353 17.572779 1.6366757 8.85044e-39
-10.081885 17.572107 1.6366109 9.771669e-39
-10.080418 17.571436 1.6365459 1.1245712e-38
-10.084976 17.575802 1.6354868 9.1277527e-39
-10.084864 17.573668 1.6335179 9.1277527e-39
-10.085019 17.576019 1.6322565 9.2192253e-39
-10.085041 17.57613 1.6306412 9.2185064e-39
-10.085062 17.576239 1.6290259 9.0344711e-39
-10.085084 17.576347 1.6274108 8.9422754e-39
-10.083612 17.575676 1.6273456 9.7705928e-39
-10.083634 17.575785 1.6257303 9.4028893e-39
-10.083786 17.578148 1.6244475 9.4028893e-39
-10.082312 17.577473 1.6243823 9.9553358e-39
-10.082206 17.575331 1.6224346 9.9553372e-39
-10.082228 17.575439 1.6208194 9.9553372e-39
-10.082249 17.575548 1.6192042 9.9553372e-39
-10.082143 17.573416 1.6172733 9.9553372e-39
-10.082292 17.575768 1.6159737 9.9549812e-39
-10.080697 17.572853 1.6155969 1.105952e-38
-10.082314 17.575876 1.6143583 9.9549812e-39
-10.080718 17.572962 1.6139855 1.105952e-38
-10.082335 17.575987 1.612743 9.6783943e-39
-10.07925 17.572292 1.6139205 1.2349524e-38
-10.08074 17.573072 1.6123739 1.1428658e-38
-10.082356 17.576096 1.6111279 9.5865546e-39
-10.080761 17.573181 1.6107626 1.1428658e-38
-10.082377 17.576204 1.6095126 9.494359e-39
-10.080783 17.57329 1.6091511 1.1336463e-38
-10.082527 17.578568 1.6081916 9.4936402e-39
-10.080804 17.573399 1.6075395 1.1335741e-38
-10.082549 17.578678 1.6065724 9.4936387e-39
-10.08257 17.578787 1.6049534 9.4936387e-39
-10.082592 17.578897 1.6033342 9.4939947e-39
-10.082614 17.579006 1.6017153 9.4939919e-39
-10.082635 17.579117 1.6000962 9.6787363e-39
-10.081161 17.578442 1.600031 1.1428643e-38
-10.081182 17.578552 1.5984118 1.1336447e-38
-10.081203 17.578661 1.5967928 1.1244251e-38
-10.0811 17.576515 1.59491 1.1244253e-38
-10.079629 17.575842 1.5948451 1.2349506e-38
-10.081121 17.576624 1.593295 1.1336449e-38
-10.078157 17.575171 1.59478 1.3823183e-38
-10.079529 17.573709 1.5929714 1.2441702e-38
-10.078061 17.573038 1.5929064 1.3915379e-38
-10.081143 17.576735 1.5916796 1.1336449e-38
-10.079551 17.573818 1.59136 1.2441704e-38
-10.08104 17.574598 1.5898135 1.1152417e-38
-10.079391 17.570581 1.5893747 1.2258032e-38
-10.080875 17.57136 1.5878335 1.1060225e-38
-10.080896 17.571468 1.5862279 1.1244619e-38
-10.080918 17.571577 1.584622 1.1060227e-38
-10.080939 17.571686 1.5830163 1.1059871e-38
-10.080961 17.571795 1.5814105 1.1244263e-38
-10.080982 17.571903 1.5798045 1.1152787e-38
-10.082466 17.57268 1.5782635 9.5865532e-39
-10.082488 17.572788 1.5766577 9.3099664e-39
-10.082701 17.576252 1.5753753 9.3099664e-39
-10.08285 17.578609 1.5739769 9.2177679e-39
-10.08138 17.577936 1.5739118 1.1152787e-38
-10.082872 17.578718 1.5723617 9.402162e-39
-10.082893 17.578829 1.5707464 9.494359e-39
-10.082915 17.578938 1.5691311 9.0330249e-39
-10.082936 17.579046 1.567516 8.8486365e-39
-10.082958 17.579155 1.5659006 9.4940059e-39
-10.081487 17.578484 1.5658356 1.0968046e-38
-10.081509 17.578592 1.5642203 1.1336825e-38
-10.08153 17.578701 1.5626049 1.0875845e-38
-10.079937 17.575781 1.5623537 1.2258049e-38
-10.079958 17.57589 1.5607423 1.1889622e-38
-10.07998 17.575998 1.5591308 1.1889618e-38
-10.080001 17.576109 1.5575193 1.1797778e-38
-10.080023 17.576218 1.5559078 1.1705583e-38
-10.078555 17.575546 1.5558429 1.3178544e-38
-10.080044 17.576326 1.5542965 1.1520836e-38
-10.078576 17.575655 1.5542314 1.3178546e-38
-10.080188 17.578684 1.5528485 1.1428643e-38
-10.078598 17.575764 1.5526199 1.3178191e-38
-10.080209 17.578794 1.5512331 1.1336449e-38
-10.077129 17.575092 1.552555 1.5205763e-38
-10.078619 17.575872 1.5510086 1.3270388e-38
-10.080231 17.578903 1.5496179 1.1243897e-38
-10.078759 17.57823 1.5495528 1.327039e-38
-10.080252 17.579012 1.5480026 1.1797074e-38
-10.080274 17.579123 1.5463873 1.1889269e-38
-10.081766 17.579905 1.5448371 1.0875494e-38
-10.080296 17.579231 1.5447719 1.207366e-38
-10.081788 17.580013 1.5432218 1.1059885e-38
-10.080194 17.577089 1.5430161 1.2258054e-38
-10.081683 17.577869 1.5414696 1.0875496e-38
-10.080215 17.577198 1.5414048 1.2073663e-38
-10.081831 17.580233 1.5399914 1.0414517e-38
-10.080237 17.577309 1.5397933 1.1704523e-38
-10.081726 17.578089 1.5382468 1.0137933e-38
-10.081874 17.58045 1.5367608 1.0230129e-38
-10.081895 17.580561 1.5351456 1.0691107e-38
-10.081917 17.580669 1.5335302 1.0506716e-38
-10.081939 17.580778 1.5319151 1.0506713e-38
-10.08196 17.580889 1.5302998 1.0598909e-38
-10.082108 17.583263 1.5287917 1.0506712e-38
-10.082003 17.581106 1.5270693 1.032232e-38
-10.083627 17.584156 1.5256189 9.2174218e-39
-10.082025 17.581215 1.5254539 1.0230481e-38
-10.083517 17.581999 1.523904 9.4018103e-39
-10.08192 17.579069 1.5237435 1.0414869e-38
-10.08367 17.584375 1.5223806 9.3099678e-39
-10.08356 17.582216 1.5206735 9.2188497e-39
-10.083713 17.584595 1.5191425 9.3110454e-39
-10.083734 17.584703 1.5175234 9.310688e-39
-10.083625 17.582544 1.5158275 9.2184924e-39
-10.083646 17.582653 1.5142124 9.2184924e-39
-10.083668 17.582764 1.5125972 9.310688e-39
-10.082196 17.58209 1.5125321 1.0598542e-38
-10.083558 17.580614 1.5109168 9.4028837e-39
-10.08358 17.580723 1.5093055 9.0341039e-39
-10.085069 17.581503 1.507759 8.666406e-39
-10.083601 17.580832 1.5076939 9.3106908e-39
-10.085091 17.581612 1.5061474 8.666406e-39
-10.085112 17.58172 1.504536 8.8507973e-39
-10.083666 17.581158 1.5028596 9.4028837e-39
-10.083687 17.581268 1.5012481 9.2184924e-39
-10.083709 17.581377 1.4996365 9.1262968e-39
-10.082241 17.580706 1.4995717 1.0322311e-38
-10.08373 17.581486 1.4980252 9.3099678e-39
-10.082262 17.580814 1.4979602 1.0506702e-38
-10.083752 17.581594 1.4964136 9.3081685e-39
-10.082284 17.580923 1.4963489 1.0321589e-38
-10.083773 17.581703 1.4948024 9.3085244e-39
-10.082115 17.577662 1.4946973 1.050526e-38
-10.083795 17.581812 1.4931908 9.2163288e-39
-10.082136 17.57777 1.4930916 1.0413064e-38
-10.083816 17.581923 1.4915794 9.0319375e-39
-10.080673 17.577103 1.4930267 1.1794907e-38
-10.082158 17.577879 1.4914856 1.0136477e-38
-10.083838 17.582031 1.4899678 9.0330165e-39
-10.082179 17.577988 1.4898798 1.0137198e-38
-10.083858 17.58214 1.4883565 9.3096034e-39
-10.08388 17.582249 1.486745 9.401799e-39
-10.083901 17.582357 1.4851334 9.1248562e-39
-10.083923 17.582468 1.4835221 9.4936387e-39
-10.084076 17.584841 1.4819071 9.4936387e-39
-10.083966 17.582685 1.4802991 9.3099664e-39
-10.083987 17.582794 1.4786875 9.1255751e-39
-10.084009 17.582903 1.4770763 9.2177707e-39
-10.08403 17.583012 1.4754647 9.494359e-39
-10.084052 17.583122 1.4738532 9.494359e-39
-10.085541 17.583902 1.4723067 8.6653242e-39
-10.082584 17.582451 1.4737884 1.041415e-38
-10.084073 17.583231 1.4722419 9.4014431e-39
-10.085563 17.584011 1.4706953 9.1252206e-39
-10.085584 17.58412 1.4690838 8.8489896e-39
-10.085741 17.586496 1.467435 8.5720468e-39
-10.08427 17.585823 1.4673698 9.4929157e-39
-10.084291 17.585934 1.4657545 9.4929157e-39
-10.084312 17.586042 1.4641392 9.40072e-39
-10.084333 17.586151 1.4625241 9.3085244e-39
-10.084355 17.586262 1.4609088 9.1237772e-39
-10.083014 17.587864 1.4607905 9.9520862e-39
-10.083035 17.587975 1.4591714 9.9520862e-39
-10.082927 17.585806 1.4576131 1.01372e-38
-10.082949 17.585917 1.4559979 1.0229396e-38
-10.082841 17.583759 1.4544508 1.0321595e-38
-10.08267 17.580488 1.4529465 1.041379e-38
-10.084154 17.581264 1.4514055 9.0330249e-39
-10.081208 17.579819 1.4528818 1.1519045e-38
-10.082692 17.580597 1.4513408 1.0321957e-38
-10.084176 17.581373 1.4497998 8.9408293e-39
-10.082582 17.578384 1.4498163 1.0137566e-38
-10.084197 17.581482 1.4481939 8.9408293e-39
-10.082735 17.580812 1.4481291 9.8609793e-39
-10.084219 17.581591 1.4465882 8.9408293e-39
-10.082756 17.580921 1.4465233 9.6773041e-39
-10.08424 17.581699 1.4449823 8.6653214e-39
-10.082777 17.58103 1.4449176 9.7694998e-39
-10.084459 17.585194 1.4432354 8.6660375e-39
-10.082799 17.581139 1.4433117 9.9538882e-39
-10.084283 17.581917 1.4417707 9.1270156e-39
-10.082561 17.576694 1.4419036 1.0414866e-38
-10.084304 17.582026 1.4401649 9.3110454e-39
-10.084523 17.58552 1.4384011 8.6656759e-39
-10.084545 17.58563 1.4367896 8.5734775e-39
-10.084566 17.585739 1.4351783 8.8500616e-39
-10.083098 17.585068 1.4351132 9.9545987e-39
-10.084588 17.585848 1.4335667 8.757866e-39
-10.08312 17.585176 1.4335018 1.0230467e-38
-10.084609 17.585957 1.4319553 9.0348088e-39
-10.081653 17.584505 1.4334369 1.1427198e-38
-10.082949 17.5819 1.4320712 1.0046073e-38
-10.081486 17.581232 1.4320064 1.1243163e-38
-10.084764 17.588337 1.4302189 8.8493385e-39
-10.083163 17.585394 1.4302788 9.6772901e-39
-10.084785 17.588448 1.4286036 9.0337298e-39
-10.083314 17.587774 1.4285387 9.8616842e-39
-10.084941 17.590839 1.4268552 9.1259254e-39
-10.083466 17.590166 1.42679 1.0137552e-38
-10.084828 17.588665 1.4253732 8.941537e-39
-10.083488 17.590275 1.4251709 1.0137555e-38
-10.084984 17.591059 1.4236171 9.1259282e-39
-10.083509 17.590385 1.4235518 1.0414142e-38
-10.085006 17.591169 1.4219981 9.2181239e-39
-10.083662 17.592787 1.4217874 1.0598533e-38
-10.085027 17.591278 1.4203789 8.9408181e-39
-10.083683 17.592897 1.4201645 1.0321943e-38
-10.085049 17.591387 1.4187598 9.0330137e-39
-10.083705 17.593006 1.4185416 9.9531609e-39
-10.08507 17.591497 1.4171407 8.7564268e-39
-10.083727 17.593117 1.4169186 9.7687669e-39
-10.085092 17.591606 1.4155217 8.9408181e-39
-10.085114 17.591717 1.4139028 8.9408181e-39
-10.085 17.58954 1.412451 8.6642312e-39
-10.083529 17.588867 1.4123859 9.6765741e-39
-10.085022 17.589649 1.4108357 8.7564296e-39
-10.084909 17.587484 1.4093949 8.9408209e-39
-10.083442 17.586813 1.4093299 9.8609681e-39
-10.083464 17.586922 1.4077183 9.5840239e-39
-10.083615 17.589304 1.4059249 9.6762195e-39
-10.083636 17.589415 1.4043096 9.4918311e-39
-10.082166 17.588741 1.4042445 1.0597443e-38
-10.083658 17.589523 1.4026945 9.768418e-39
-10.082187 17.58885 1.4026293 1.0781834e-38
-10.083679 17.589632 1.4010791 9.8606164e-39
-10.082336 17.591244 1.4008195 1.0873673e-38
-10.083701 17.589743 1.3994639 9.5840295e-39
-10.082357 17.591354 1.3992004 1.0597086e-38
-10.083854 17.592138 1.3976465 9.5836736e-39
-10.082379 17.591463 1.3975813 1.0689281e-38
-10.083876 17.592247 1.3960276 9.6758692e-39
-10.083766 17.590069 1.394618 9.3996382e-39
-10.083787 17.590179 1.3930029 9.4918311e-39
-10.08394 17.592575 1.3911704 9.4918311e-39
-10.082465 17.591902 1.3911051 1.0689639e-38
-10.083961 17.592686 1.3895513 9.5840267e-39
-10.083852 17.590508 1.388157 9.6762251e-39
-10.083742 17.588339 1.3867694 9.7684208e-39
-10.083763 17.588448 1.3851578 9.6758692e-39
-10.083785 17.588556 1.3835464 9.3992823e-39
-10.083806 17.588667 1.381935 9.2148939e-39
-10.083828 17.588776 1.3803235 9.3070895e-39
-10.083849 17.588884 1.3787121 9.8602633e-39
-10.083871 17.588993 1.3771006 9.675872e-39
-10.083696 17.585703 1.3758682 9.3992851e-39
-10.083914 17.589211 1.3738776 9.5836764e-39
-10.083935 17.589321 1.3722663 9.7680676e-39
-10.083957 17.58943 1.3706548 9.7680676e-39
-10.082298 17.585361 1.3709861 1.0688931e-38
-10.083978 17.589539 1.3690435 9.8609793e-39
-10.080835 17.584692 1.3709214 1.1886018e-38
-10.082319 17.58547 1.3693804 1.0873678e-38
-10.084 17.589647 1.3674318 1.0321955e-38
-10.082532 17.588976 1.3673669 1.1980023e-38
-10.084021 17.589756 1.3658204 9.5847456e-39
-10.082553 17.589085 1.3657554 1.0597804e-38
-10.084043 17.589867 1.3642089 9.3081559e-39
-10.082575 17.589195 1.364144 9.7680424e-39
-10.084064 17.589975 1.3625973 9.5847428e-39
-10.082405 17.585903 1.3629571 1.0136825e-38
-10.085553 17.590755 1.361051 8.5734775e-39
-10.084085 17.590084 1.360986 9.676937e-39
-10.087042 17.591536 1.3595045 8.0213855e-39
-10.08571 17.593147 1.3591475 8.5734747e-39
-10.087064 17.591644 1.357893 8.2057768e-39
-10.087085 17.591753 1.3562815 8.0213827e-39
-10.087107 17.591862 1.35467 7.9291871e-39
-10.087128 17.591972 1.3530585 7.929543e-39
-10.08715 17.592081 1.3514472 8.1139343e-39
-10.087171 17.59219 1.3498358 8.2983256e-39
-10.085703 17.591518 1.3497709 8.5738306e-39
-10.087193 17.592299 1.3482243 8.205774e-39
-10.084235 17.590847 1.3497058 9.4925457e-39
-10.085725 17.591627 1.3481593 8.5734747e-39
-10.08406 17.587551 1.3485695 9.6769384e-39
-10.085746 17.591736 1.346548 8.4812791e-39
-10.084081 17.58766 1.3469639 9.4925471e-39
-10.085768 17.591846 1.3449364 8.2968906e-39
-10.084103 17.587769 1.345358 9.3081587e-39
-10.085587 17.588545 1.3438169 8.5723985e-39
-10.084124 17.587877 1.3437523 9.1241276e-39
-10.085608 17.588654 1.3422112 9.0333767e-39
-10.084146 17.587986 1.3421465 9.4010704e-39
-10.085629 17.588762 1.3406054 8.4802029e-39
-10.084167 17.588095 1.3405406 8.9411712e-39
-10.085854 17.592281 1.3384905 8.2958116e-39
-10.085875 17.59239 1.336879 8.6645941e-39
-10.085896 17.592501 1.3352677 8.941181e-39
-10.084429 17.591829 1.3352027 9.6783803e-39
-10.08445 17.591938 1.3335912 9.4017934e-39
-10.084472 17.592047 1.3319798 9.1252066e-39
-10.084625 17.594442 1.3300077 8.9408181e-39
-10.084647 17.594551 1.3283925 9.217405e-39
-10.084536 17.592375 1.3271452 9.2174078e-39
-10.083068 17.591703 1.3270804 1.0138271e-38
-10.084558 17.592484 1.3255339 9.2174078e-39
-10.0816 17.591032 1.3270154 1.1334279e-38
-10.083089 17.591812 1.3254689 1.0138271e-38
-10.084711 17.594879 1.3235468 9.2174078e-39
-10.083111 17.591921 1.3238574 1.0046075e-38
-10.084733 17.594988 1.3219315 9.2170519e-39
-10.084755 17.595098 1.3203161 9.1248562e-39
-10.084776 17.595207 1.318701 9.032662e-39
-10.084798 17.595316 1.3170856 9.2159743e-39
-10.08629 17.596098 1.3155357 8.6642452e-39
-10.084952 17.597725 1.3150738 9.4925597e-39
-10.086311 17.596209 1.3139204 8.3876583e-39
-10.084974 17.597836 1.3134549 9.3078056e-39
-10.087945 17.599293 1.3119663 7.9281235e-39
-10.086471 17.598619 1.311901 8.3876555e-39
-10.084996 17.597944 1.3118358 9.3078056e-39
-10.087686 17.594807 1.3111607 8.2969046e-39
-10.087708 17.594915 1.3095491 8.3891003e-39
-10.086239 17.594244 1.3094842 8.756794e-39
-10.086397 17.596645 1.3074594 8.4802071e-39
-10.086282 17.594463 1.3062613 8.4802057e-39
-10.084814 17.593792 1.3061963 9.1237646e-39
-10.086304 17.594572 1.3046498 8.7567926e-39
-10.084836 17.593901 1.3045849 9.3081559e-39
-10.086325 17.594681 1.3030384 8.6645941e-39
-10.084857 17.594009 1.3029734 9.3081559e-39
-10.086484 17.597082 1.3009982 8.6645941e-39
-10.084412 17.586103 1.3028623 9.4003515e-39
-10.086368 17.594898 1.2998154 8.5724013e-39
-10.08639 17.595009 1.2982039 8.2036202e-39
-10.086206 17.591698 1.2972488 8.2036202e-39
-10.086087 17.589458 1.2960974 8.3876555e-39
-10.086108 17.589567 1.2944956 8.5720468e-39
-10.08627 17.592024 1.2924314 8.3876555e-39
-10.086291 17.592133 1.2908256 8.2965389e-39
-10.084829 17.591463 1.2907609 9.2159729e-39
-10.086313 17.592241 1.2892199 8.2972578e-39
-10.086334 17.59235 1.2876141 8.3894534e-39
-10.086356 17.592459 1.2860082 8.3894534e-39
-10.084893 17.591789 1.2859434 9.2159729e-39
-10.086582 17.595989 1.2837007 8.2050621e-39
-10.084914 17.591898 1.2843378 9.2159729e-39
-10.086604 17.596098 1.2820894 8.0206709e-39
-10.085136 17.595427 1.2820244 9.2163288e-39
-10.086625 17.596207 1.2804779 7.9284752e-39
-10.083669 17.594755 1.2819595 1.0045359e-38
-10.085157 17.595537 1.280413 9.1241332e-39
-10.08369 17.594866 1.2803481 9.8609681e-39
-10.086647 17.596317 1.2788665 7.9284724e-39
-10.085179 17.595646 1.2788014 8.9397391e-39
-10.086806 17.598722 1.2767693 8.297255e-39
-10.086967 17.601139 1.2746623 8.1128637e-39
-10.086711 17.596643 1.2740321 8.1128623e-39
-10.08687 17.599051 1.2719235 8.4816448e-39
-10.086754 17.596863 1.2708092 8.5738405e-39
-10.086776 17.596972 1.2691977 8.3894492e-39
-10.086935 17.599379 1.2670777 8.2050579e-39
-10.085329 17.596409 1.2675211 8.9397391e-39
-10.085485 17.598814 1.2653974 8.7564296e-39
-10.085372 17.596626 1.2642983 8.8482707e-39
-10.083904 17.595955 1.2642334 9.7684152e-39
-10.085394 17.596735 1.262687 8.9404664e-39
-10.085415 17.596846 1.2610754 8.940465e-39
-10.085571 17.599251 1.2589363 8.940465e-39
-10.085729 17.601669 1.2567872 8.9408209e-39
-10.08575 17.60178 1.2551682 8.8486225e-39
-10.085636 17.599579 1.2540905 8.8486197e-39
-10.084165 17.598907 1.2540256 9.6772873e-39
-10.085522 17.597391 1.2530181 8.756424e-39
-10.085544 17.5975 1.2514068 8.5720328e-39
-10.085565 17.597609 1.2497952 9.1252066e-39
-10.085587 17.597717 1.2481837 9.1252066e-39
-10.083922 17.59362 1.2489454 9.5850945e-39
-10.085608 17.597826 1.2465723 8.9408181e-39
-10.083943 17.593727 1.2473395 9.400706e-39
-10.085629 17.597935 1.2449608 8.9408209e-39
-10.084162 17.597263 1.2448959 9.4925457e-39
-10.08565 17.598045 1.2433492 8.7564296e-39
-10.084183 17.597374 1.2432843 9.1237646e-39
-10.085672 17.598154 1.2417378 8.6638781e-39
-10.084205 17.597483 1.2416729 8.7549849e-39
-10.08583 17.600563 1.2395533 9.0330137e-39
-10.085851 17.600672 1.237938 9.2166777e-39
-10.085873 17.600782 1.2363226 9.2170336e-39
-10.085894 17.600891 1.2347076 8.941167e-39
-10.085916 17.601 1.2330923 8.6645829e-39
-10.08621 17.605747 1.2302842 8.5723887e-39
-10.086232 17.605856 1.2286614 8.5727516e-39
-10.087731 17.606642 1.2271038 8.0206667e-39
-10.086253 17.605967 1.2270385 8.5727516e-39
-10.087612 17.604425 1.2260901 7.9284724e-39
-10.086138 17.603752 1.2260249 8.4805588e-39
-10.087775 17.606863 1.2238581 8.1128637e-39
-10.086297 17.606186 1.2237927 8.5727544e-39
-10.087796 17.606972 1.2222352 8.0206681e-39
-10.086318 17.606297 1.2221698 8.5727544e-39
-10.089151 17.605429 1.2212982 7.7444441e-39
-10.087818 17.607082 1.2206123 8.0199492e-39
-10.089173 17.605539 1.2196791 7.9284752e-39
-10.089195 17.605648 1.21806 8.1128637e-39
-10.089361 17.608088 1.215809 8.0199492e-39
-10.089383 17.608198 1.214186 7.5589711e-39
-10.089259 17.605978 1.2132027 7.0979957e-39
-10.102378 17.609823 1.21281 8.1132266e-39
-10.101079 17.611483 1.2121059 8.021031e-39
-10.099604 17.610807 1.2120405 7.5611291e-39
-10.098129 17.610134 1.2119755 7.1923493e-39
-10.096655 17.609459 1.21191 6.9164813e-39
-10.09518 17.608784 1.2118447 6.9164813e-39
-10.093705 17.60811 1.2117795 7.008321e-39
-10.092382 17.60977 1.2110711 7.0998006e-39
-10.090755 17.606762 1.2116491 7.2834716e-39
-10.089281 17.606087 1.2115836 7.2820338e-39
-10.1024 17.609932 1.2111949 8.2054251e-39
-10.1011 17.611591 1.2104868 7.9299172e-39
-10.099626 17.610918 1.2104216 7.6533303e-39
-10.098151 17.610243 1.2103562 7.1927123e-39
-10.096676 17.609568 1.210291 7.008321e-39
-10.095201 17.608894 1.2102257 7.0083238e-39
-10.093727 17.608219 1.2101605 7.1005194e-39
-10.092252 17.607546 1.2100952 7.1919976e-39
-10.090777 17.606871 1.21003 7.3753099e-39
-10.089303 17.606195 1.2099648 7.3749497e-39
-10.102421 17.610043 1.2095796 8.3898163e-39
-10.101122 17.611702 1.2088675 7.8373656e-39
-10.099648 17.611027 1.2088023 7.5607787e-39
-10.098172 17.610352 1.2087371 7.1005166e-39
-10.096537 17.607349 1.2093191 6.9161254e-39
-10.095223 17.609003 1.2086066 6.9161282e-39
-10.093748 17.60833 1.2085413 7.0083238e-39
-10.092274 17.607655 1.2084759 7.1919976e-39
-10.090799 17.606979 1.2084107 7.3753099e-39
-10.089324 17.606306 1.2083455 7.559341e-39
-10.102443 17.610151 1.2079643 8.2976207e-39
-10.100971 17.609478 1.2078993 7.5607787e-39
-10.099669 17.611137 1.2071834 7.2841918e-39
-10.098194 17.610462 1.207118 6.9161254e-39
-10.09672 17.609787 1.2070528 6.7317341e-39
-10.095244 17.609114 1.2069876 6.7317369e-39
-10.09377 17.608438 1.2069222 6.8239326e-39
-10.092296 17.607765 1.206857 7.0076064e-39
-10.09082 17.60709 1.2067918 7.1909186e-39
-10.089346 17.606415 1.2067266 7.559341e-39
-10.102465 17.61026 1.2063491 8.2054251e-39
-10.100993 17.609587 1.2062839 7.5607787e-39
-10.099522 17.608915 1.206219 7.2841918e-39
-10.098215 17.610571 1.2054989 6.9161282e-39
-10.09658 17.607569 1.2060888 6.7317369e-39
-10.095108 17.606895 1.2060236 6.8239326e-39
-10.093791 17.608549 1.2053032 6.9161282e-39
-10.092317 17.607874 1.2052379 7.099802e-39
-10.090694 17.604877 1.2058283 7.2831142e-39
-10.089223 17.604204 1.2057631 7.3749483e-39
-10.102311 17.608046 1.2053889 8.1132294e-39
-10.101014 17.609697 1.2046686 7.74517e-39
-10.099544 17.609024 1.2046036 7.4685831e-39
-10.098072 17.608351 1.2045386 7.1005194e-39
-10.096601 17.607677 1.2044734 6.9161282e-39
-10.09513 17.607006 1.2044082 7.0083238e-39
-10.093658 17.606333 1.2043432 7.1005194e-39
-10.092339 17.607983 1.2036188 7.2841932e-39
-10.090715 17.604986 1.2042129 7.4678628e-39
-10.089245 17.604313 1.2041477 7.3749483e-39
-10.102332 17.608154 1.2037774 8.2976207e-39
-10.101036 17.609806 1.2030536 7.8373656e-39
-10.099565 17.609133 1.2029883 7.5607787e-39
-10.098093 17.608459 1.2029233 7.1005166e-39
-10.096622 17.607788 1.2028582 7.008321e-39
-10.095151 17.607115 1.202793 7.1005166e-39
-10.093835 17.608767 1.2020651 7.1927123e-39
-10.09236 17.608093 1.2019999 7.3763875e-39
-10.090737 17.605097 1.2025979 7.5600585e-39
-10.089411 17.606745 1.2018692 7.5593396e-39
-10.102354 17.608265 1.202166 8.3898163e-39
-10.101057 17.609915 1.2014382 7.6529744e-39
-10.099586 17.609243 1.2013731 7.468939e-39
-10.098115 17.60857 1.2013079 7.008321e-39
-10.096643 17.607897 1.2012429 6.9161254e-39
-10.095173 17.607224 1.2011778 7.008321e-39
-10.093856 17.608877 1.200446 7.1005166e-39
-10.092381 17.608202 1.2003807 7.2841918e-39
-10.090907 17.607529 1.2003155 7.46786e-39
-10.089432 17.606853 1.2002501 7.7437281e-39
-10.102375 17.608374 1.2005546 8.3898163e-39
-10.101079 17.610025 1.1998229 7.7455259e-39
-10.099607 17.609352 1.1997579 7.5611347e-39
-10.098137 17.608679 1.1996928 7.1927123e-39
-10.096665 17.608006 1.1996276 7.0086769e-39
-10.095352 17.609661 1.1988921 6.9164813e-39
-10.094033 17.611324 1.1981533 6.9164813e-39
-10.092555 17.610647 1.1980878 7.1001565e-39
-10.091077 17.609972 1.1980224 7.3756644e-39
-10.089599 17.609295 1.197957 7.7437281e-39
-10.102397 17.608482 1.198943 8.2976207e-39
-10.1011 17.610134 1.1982077 7.8377187e-39
-10.099629 17.609461 1.1981425 7.6533275e-39
-10.098158 17.608788 1.1980774 7.2852638e-39
-10.096686 17.608116 1.1980125 7.0086741e-39
-10.095533 17.61211 1.1965958 6.9164813e-39
-10.094055 17.611433 1.1965302 6.9164813e-39
-10.092577 17.610758 1.1964649 7.1001537e-39
-10.09095 17.607748 1.1970773 7.3756644e-39
-10.089621 17.609406 1.1963341 7.8362796e-39
-10.102418 17.608591 1.1973315 8.1132266e-39
-10.10095 17.60792 1.1972666 7.8377159e-39
-10.09965 17.609571 1.1965272 7.6533247e-39
-10.098015 17.606577 1.1971368 7.285261e-39
-10.096708 17.608225 1.1963972 7.0086727e-39
-10.095554 17.612219 1.1949728 6.9164785e-39
-10.094076 17.611544 1.1949075 6.9164785e-39
-10.092598 17.610867 1.194842 7.1001537e-39
-10.09112 17.610191 1.1947764 7.3756616e-39
-10.088142 17.608728 1.1962687 8.2958144e-39
-10.089783 17.611774 1.1940507 7.8362796e-39
-10.088301 17.611097 1.193985 8.2958144e-39
-10.102614 17.611025 1.1950423 8.2054223e-39
-10.101143 17.610353 1.194977 7.7458776e-39
-10.099672 17.60968 1.1949121 7.5614836e-39
-10.098201 17.609007 1.194847 7.1934199e-39
-10.096891 17.610664 1.1941001 6.916833e-39
-10.095576 17.612329 1.1933498 6.7320859e-39
-10.094098 17.611652 1.1932846 6.7320859e-39
-10.09262 17.610977 1.1932192 6.9157596e-39
-10.091142 17.6103 1.1931536 7.1912703e-39
-10.089804 17.611885 1.1924241 7.6518884e-39
-10.088185 17.60895 1.1930228 8.1114246e-39
-10.102636 17.611135 1.1934271 8.2976179e-39
-10.101337 17.612797 1.192677 7.5614836e-39
-10.099693 17.609789 1.1932968 7.3770895e-39
-10.098223 17.609116 1.1932317 7.0090259e-39
-10.096913 17.610773 1.1924812 6.732439e-39
-10.095598 17.612438 1.1917269 6.6402462e-39
-10.09412 17.611763 1.1916616 6.6398902e-39
-10.092642 17.611088 1.1915963 6.823564e-39
-10.091164 17.610411 1.1915307 7.0994306e-39
-10.089826 17.611996 1.1907973 7.4674971e-39
-10.088345 17.611319 1.1907318 7.8348377e-39
-10.102834 17.613581 1.1911232 8.3901695e-39
-10.101358 17.612907 1.1910579 7.4692852e-39
-10.099884 17.612232 1.1909927 7.2852498e-39
-10.09841 17.611557 1.1909274 6.9168274e-39
-10.097097 17.613224 1.1901696 6.7324362e-39
-10.095619 17.612549 1.1901041 6.6402433e-39
-10.094141 17.611874 1.1900387 6.6402462e-39
-10.092663 17.611197 1.1899732 6.916117e-39
-10.091185 17.610521 1.1899078 7.1916263e-39
-10.089848 17.612104 1.189171 7.3753015e-39
-10.088366 17.611427 1.1891052 7.8348377e-39
-10.102679 17.611353 1.1901965 8.2979738e-39
-10.101208 17.610682 1.1901313 7.4696411e-39
-10.099736 17.610008 1.1900663 7.3774426e-39
-10.098431 17.611668 1.1893083 7.009379e-39
-10.097119 17.613335 1.1885467 6.8246318e-39
-10.095641 17.612659 1.1884812 6.7324362e-39
-10.094163 17.611982 1.1884159 6.8246346e-39
-10.092685 17.611307 1.1883504 7.1005082e-39
-10.091351 17.612892 1.1876097 7.4682132e-39
-10.089869 17.612215 1.1875441 7.5596927e-39
-10.088387 17.611538 1.1874787 7.9270333e-39
-10.1027 17.611464 1.1885813 8.2054223e-39
-10.10123 17.61079 1.1885161 7.5614808e-39
-10.099758 17.610117 1.1884511 7.3774426e-39
-10.098287 17.609444 1.188386 7.1930514e-39
-10.097141 17.613445 1.1869237 7.0086601e-39
-10.095662 17.612768 1.1868583 7.0086601e-39
-10.094184 17.612093 1.1867929 7.1008586e-39
-10.092706 17.611416 1.1867275 7.2848995e-39
-10.091228 17.610741 1.186662 7.6526044e-39
-10.08989 17.612326 1.1859175 7.744084e-39
-10.102722 17.611572 1.1869661 7.9281193e-39
-10.101251 17.610899 1.1869009 7.6536792e-39
-10.09978 17.610226 1.1868356 7.4696411e-39
-10.098309 17.609554 1.1867707 7.1930514e-39
-10.096999 17.611212 1.1860049 7.1923297e-39
-10.095525 17.610538 1.1859394 7.3760021e-39
-10.094206 17.612202 1.1851701 7.4681991e-39
-10.092575 17.609188 1.185809 7.4678488e-39
-10.091249 17.610849 1.1850392 7.3760161e-39
-10.089912 17.612436 1.1842909 7.5593368e-39
-10.10292 17.614019 1.1846468 8.2969018e-39
-10.101273 17.611008 1.1852856 7.7458748e-39
-10.099971 17.612671 1.1845162 7.3778056e-39
-10.098495 17.611996 1.184451 7.376721e-39
-10.097184 17.613665 1.1836779 7.2845225e-39
-10.095547 17.610647 1.1843203 7.5596745e-39
-10.094228 17.612312 1.183547 7.7440658e-39
-10.092597 17.609299 1.1841899 7.7444329e-39
-10.091271 17.61096 1.1834162 7.7440798e-39
-10.089793 17.610285 1.1833508 7.3756616e-39
-10.102942 17.614128 1.1830277 8.3898163e-39
-10.101294 17.611118 1.1836704 7.6536792e-39
-10.099992 17.61278 1.1828972 7.2859659e-39
-10.098517 17.612106 1.1828319 7.1923269e-39
-10.097205 17.613773 1.182055 7.0079329e-39
-10.095727 17.613098 1.1819896 7.3756392e-39
-10.094249 17.612421 1.1819242 7.5600304e-39
-10.092618 17.609407 1.1825708 7.7444301e-39
-10.091144 17.608734 1.1825056 7.8366313e-39
-10.089814 17.610394 1.181728 7.2838219e-39
-10.102962 17.614239 1.1814088 8.2976207e-39
-10.101315 17.611227 1.1820552 7.6536764e-39
-10.100014 17.61289 1.1812781 7.1937689e-39
-10.098538 17.612215 1.1812129 7.0079357e-39
-10.097227 17.613884 1.1804321 6.731346e-39
-10.095749 17.613209 1.1803668 7.0068539e-39
-10.094271 17.612532 1.1803013 7.1912479e-39
-10.09264 17.609518 1.1809518 7.3760035e-39
-10.091314 17.611179 1.1801704 7.467846e-39
-10.089836 17.610504 1.180105 7.1916249e-39
-10.102984 17.614347 1.1797897 8.2054251e-39
-10.10151 17.613674 1.1797245 7.8380677e-39
-10.100035 17.612999 1.1796592 7.378516e-39
-10.09856 17.612324 1.1795938 7.1001285e-39
-10.097249 17.613993 1.178809 6.7317019e-39
-10.095771 17.613317 1.1787437 6.9146554e-39
-10.094293 17.612642 1.1786785 7.0068539e-39
-10.092814 17.611965 1.1786129 7.0994152e-39
-10.091336 17.61129 1.1785475 7.1912563e-39
-10.089858 17.610613 1.1784822 7.0994264e-39
-10.103006 17.614458 1.1781706 8.2054251e-39
-10.101358 17.611446 1.1788247 8.1146546e-39
-10.100057 17.61311 1.17804 7.654747e-39
-10.098582 17.612434 1.1779747 7.3767154e-39
-10.09727 17.614103 1.1771864 7.1004844e-39
-10.095633 17.611086 1.1778442 7.1912423e-39
-10.094158 17.610411 1.177779 7.1912451e-39
-10.092683 17.609737 1.1777138 7.1916109e-39
-10.091357 17.611399 1.1769245 7.1912563e-39
-10.08838 17.609938 1.1784166 7.5596885e-39
-10.089879 17.610723 1.1768593 7.0994292e-39
-10.088259 17.607714 1.1775179 7.6518842e-39
-10.103027 17.614567 1.1765513 8.2054251e-39
-10.101553 17.613894 1.1764861 8.0224617e-39
-10.100078 17.613218 1.1764209 7.6547484e-39
-10.098603 17.612543 1.1763556 7.4689166e-39
-10.097292 17.614214 1.1755633 7.1923269e-39
-10.095814 17.613537 1.175498 7.2834435e-39
-10.094179 17.610521 1.1761599 7.2834435e-39
-10.092705 17.609846 1.1760945 7.1916123e-39
-10.091229 17.609171 1.1760292 7.1912591e-39
-10.089901 17.610832 1.1752363 7.0994306e-39
-10.088281 17.607822 1.1758987 7.7440812e-39
-10.103049 17.614677 1.1749324 8.1132294e-39
-10.101574 17.614002 1.1748672 7.7458776e-39
-10.1001 17.613327 1.1748018 7.3778084e-39
-10.098792 17.615 1.1740059 7.2841708e-39
-10.097314 17.614323 1.1739404 7.0997768e-39
-10.095836 17.613647 1.173875 7.2830876e-39
-10.094357 17.61297 1.1738096 7.283089e-39
-10.092879 17.612295 1.1737442 7.1912591e-39
-10.091401 17.611618 1.1736786 7.0987104e-39
-10.089923 17.610943 1.1736133 7.0990747e-39
-10.088445 17.610268 1.173548 7.8362796e-39
-10.10307 17.614786 1.1733133 7.9288382e-39
-10.101596 17.614111 1.1732479 7.5611319e-39
-10.100121 17.613438 1.1731827 7.3774553e-39
-10.098646 17.612762 1.1731175 7.468209e-39
-10.097172 17.612089 1.1730522 7.2841736e-39
-10.095857 17.613756 1.1722521 7.2830918e-39
-10.094378 17.613081 1.1721869 7.1905403e-39
-10.0929 17.612406 1.1721213 7.2831016e-39
-10.091422 17.611729 1.1720558 7.4674971e-39
-10.089944 17.611053 1.1719905 7.3756672e-39
-10.088466 17.610376 1.1719249 7.6515352e-39
-10.103092 17.614895 1.1716944 7.8377216e-39
-10.101618 17.614222 1.1716291 7.6533303e-39
-10.100142 17.613546 1.1715637 7.5618507e-39
-10.098668 17.612873 1.1714985 7.652603e-39
-10.097194 17.612198 1.1714333 7.3760133e-39
-10.095879 17.613867 1.1706293 7.2827387e-39
-10.0944 17.613192 1.1705638 7.0983502e-39
-10.092922 17.612514 1.1704984 7.0987146e-39
-10.091444 17.611839 1.1704329 7.1905571e-39
-10.089966 17.611162 1.1703675 7.5597039e-39
-10.086987 17.609701 1.1718596 8.1121504e-39
-10.088488 17.610487 1.1703022 7.835572e-39
-10.087009 17.60981 1.1702366 8.2039901e-39
-10.104387 17.613228 1.1724938 8.2976235e-39
-10.105858 17.613901 1.1725588 8.482012e-39
-10.104365 17.613119 1.1741091 8.2054279e-39
-10.107143 17.61224 1.1733546 8.3898191e-39
-10.105837 17.613792 1.1741741 8.3898191e-39
-10.108611 17.612911 1.1734196 8.1132294e-39
-10.107121 17.612131 1.174966 8.2976235e-39
-10.110079 17.613583 1.1734843 8.0210366e-39
-10.108589 17.612803 1.1750309 8.0210366e-39
-10.111547 17.614254 1.1735495 8.2054279e-39
-10.110057 17.613474 1.175096 7.9284837e-39
-10.113014 17.614925 1.1736143 8.4816574e-39
-10.111525 17.614145 1.1751609 8.2050705e-39
-10.114482 17.615597 1.1736794 8.1128749e-39
-10.112993 17.614817 1.1752259 8.4816574e-39
-10.11595 17.616268 1.1737443 8.2050705e-39
-10.114461 17.615488 1.1752908 8.2050705e-39
-10.117417 17.61694 1.1738094 8.1139539e-39
-10.115929 17.616159 1.1753557 8.1139539e-39
-10.118567 17.614111 1.1749617 8.0217611e-39
-10.117396 17.616831 1.1754208 8.2061523e-39
-10.120029 17.61478 1.1750264 7.83773e-39
-10.118546 17.614002 1.1765674 8.1139567e-39
-10.121491 17.61545 1.1750911 7.7455343e-39
-10.120008 17.614672 1.1766322 7.83773e-39
-10.122954 17.616119 1.175156 7.83773e-39
-10.12147 17.615341 1.176697 7.7455343e-39
-10.124184 17.61438 1.1759665 8.0217611e-39
-10.122932 17.616011 1.1767615 7.8377328e-39
-10.125416 17.612732 1.1767476 8.0199632e-39
-10.124163 17.614271 1.1775683 8.0217611e-39
-10.126634 17.611008 1.1775504 8.0199632e-39
-10.125395 17.612623 1.1783458 8.1125148e-39
-10.128086 17.611673 1.1776148 8.0203191e-39
-10.126613 17.610901 1.1791447 8.1117945e-39
-10.129538 17.612337 1.1776789 8.0199632e-39
-10.128064 17.611565 1.1792091 8.0203177e-39
-10.13099 17.613001 1.1777433 7.9284865e-39
-10.129517 17.612228 1.1792734 8.0203177e-39
-10.132694 17.61606 1.1770697 7.9284865e-39
-10.130969 17.612892 1.1793377 8.0206793e-39
-10.13415 17.616726 1.1771342 7.8370139e-39
-10.132672 17.615952 1.1786679 8.0206793e-39
-10.135605 17.617392 1.1771985 7.8370139e-39
-10.134129 17.616617 1.1787323 7.9295655e-39
-10.137061 17.618057 1.177263 7.8377356e-39
-10.135584 17.617283 1.1787966 8.0217611e-39
-10.138516 17.618723 1.1773275 7.8377356e-39
-10.13704 17.617949 1.1788611 7.9299284e-39
-10.139444 17.614676 1.1788372 7.7462602e-39
-10.138495 17.618614 1.1789258 7.9299284e-39
-10.104343 17.61301 1.1757243 8.296906e-39
-10.105815 17.613684 1.1757895 8.2972662e-39
-10.107286 17.614355 1.1758546 8.2972662e-39
-10.108757 17.615028 1.1759197 8.2050705e-39
-10.110036 17.613365 1.1767074 8.2050733e-39
-10.111504 17.614037 1.1767724 8.0217611e-39
-10.112971 17.614708 1.1768373 8.1139567e-39
-10.114439 17.615379 1.1769022 7.8373698e-39
-10.115907 17.616051 1.1769673 8.0221212e-39
-10.117374 17.616722 1.1770321 8.2987081e-39
-10.118842 17.617393 1.1770971 8.2987081e-39
-10.119987 17.614563 1.178238 8.022124e-39
-10.121449 17.615232 1.1783028 7.9299284e-39
-10.122911 17.615902 1.1783675 7.9299284e-39
-10.124142 17.614162 1.1791703 8.1139567e-39
-10.125373 17.612514 1.1799439 8.2047062e-39
-10.126591 17.610792 1.1807392 8.3887317e-39
-10.128043 17.611456 1.1808035 8.481649e-39
-10.129496 17.612122 1.1808676 8.2972578e-39
-10.130947 17.612785 1.1809318 7.9288382e-39
-10.1324 17.613449 1.1809962 7.8366426e-39
-10.134108 17.616508 1.1803304 7.74517e-39
-10.135563 17.617174 1.1803949 7.9295613e-39
-10.137018 17.61784 1.1804594 7.8380859e-39
-10.139423 17.614569 1.1804278 7.6547806e-39
-10.138208 17.616106 1.1812533 7.83773e-39
-10.104322 17.612902 1.1773394 8.4812973e-39
-10.105794 17.613573 1.1774046 8.4816574e-39
-10.107265 17.614246 1.1774698 8.4816574e-39
-10.108736 17.61492 1.1775351 8.297269e-39
-10.110208 17.615593 1.1775999 8.2050733e-39
-10.111482 17.613928 1.1783837 8.0217611e-39
-10.112949 17.614599 1.1784487 8.1139567e-39
-10.114418 17.615271 1.1785138 7.9299256e-39
-10.115886 17.615942 1.1785786 8.1143168e-39
-10.117353 17.616613 1.1786437 8.2987081e-39
-10.118503 17.613787 1.1797792 8.2987081e-39
-10.119965 17.614454 1.1798438 8.1143197e-39
-10.121428 17.615124 1.1799085 8.022124e-39
-10.122661 17.613386 1.1807076 8.022124e-39
-10.12412 17.614054 1.1807723 8.2061495e-39
-10.125352 17.612406 1.181542 8.1128637e-39
-10.12657 17.610685 1.1823334 8.2972536e-39
-10.128022 17.611349 1.1823977 8.4816448e-39
-10.129475 17.612013 1.182462 8.3894506e-39
-10.130926 17.612677 1.1825262 8.1135826e-39
-10.132379 17.61334 1.1825905 8.021031e-39
-10.134086 17.616402 1.1819286 7.8377187e-39
-10.135542 17.617067 1.181993 7.9299172e-39
-10.136997 17.617733 1.1820575 7.8380845e-39
-10.139401 17.61446 1.1820184 7.6551366e-39
-10.138453 17.618399 1.182122 7.8380859e-39
-10.1043 17.612791 1.1789548 8.4809414e-39
-10.105772 17.613464 1.1790199 8.4816602e-39
-10.107058 17.611805 1.1798003 8.3894646e-39
-10.108525 17.612476 1.1798655 8.1139567e-39
-10.109993 17.613148 1.1799303 7.9295655e-39
-10.111461 17.613819 1.1799953 7.83773e-39
-10.112928 17.614491 1.1800601 7.9299256e-39
-10.114396 17.61516 1.1801251 7.838809e-39
-10.115864 17.615831 1.1801902 8.0232002e-39
-10.117332 17.616503 1.1802551 8.1153958e-39
-10.118481 17.613678 1.1813848 8.1153958e-39
-10.119944 17.614346 1.1814495 8.2065125e-39
-10.121407 17.615015 1.1815144 8.1143168e-39
-10.12264 17.613279 1.1823095 8.1143168e-39
-10.123875 17.611633 1.1830759 8.2983438e-39
-10.125331 17.612299 1.1831403 8.0213855e-39
-10.126549 17.610577 1.1839278 8.205774e-39
-10.128001 17.61124 1.183992 8.3901653e-39
-10.129453 17.611904 1.1840563 8.3901681e-39
-10.130905 17.61257 1.1841205 8.2979724e-39
-10.132358 17.613234 1.1841849 8.2057782e-39
-10.133809 17.613897 1.1842492 8.0221072e-39
-10.135262 17.614561 1.1843134 8.02211e-39
-10.136714 17.615225 1.1843777 7.8380817e-39
-10.139909 17.619064 1.1821864 7.7466105e-39
-10.138165 17.615891 1.184442 7.8380845e-39
-10.10428 17.612682 1.18057 8.3887457e-39
-10.105568 17.611025 1.1813468 8.3894646e-39
-10.107036 17.611696 1.1814117 8.297269e-39
-10.108503 17.612368 1.1814768 7.9295655e-39
-10.109971 17.613037 1.1815418 7.8373698e-39
-10.111439 17.613708 1.1816067 7.7455343e-39
-10.112609 17.610893 1.1827316 7.7455343e-39
-10.114375 17.615051 1.1817367 7.9310046e-39
-10.115843 17.615723 1.1818016 7.9310046e-39
-10.117311 17.616394 1.1818665 8.0232002e-39
-10.11846 17.613569 1.1829907 8.0232002e-39
-10.119923 17.614237 1.1830555 8.2065125e-39
-10.121385 17.614906 1.1831201 8.1146728e-39
-10.122619 17.613171 1.1839114 8.1146728e-39
-10.124078 17.613838 1.1839761 8.2065041e-39
-10.125309 17.61219 1.1847384 7.8380733e-39
-10.126528 17.61047 1.1855221 8.1135784e-39
-10.127979 17.611134 1.1855865 8.2979696e-39
-10.129432 17.611797 1.1856506 8.4823637e-39
-10.130884 17.612461 1.1857148 8.4823637e-39
-10.132337 17.613125 1.185779 8.3901695e-39
-10.133788 17.613789 1.1858435 8.2064985e-39
-10.134992 17.61215 1.1865979 8.2065013e-39
-10.136693 17.615118 1.185972 7.8380817e-39
-10.139359 17.614246 1.1851997 7.7469679e-39
-10.13789 17.613476 1.1867262 7.9302801e-39
-10.104258 17.612574 1.1821853 8.4812973e-39
-10.105547 17.610914 1.1829584 8.4816574e-39
-10.107015 17.611586 1.1830232 8.3894618e-39
-10.108482 17.612257 1.1830882 8.1139567e-39
-10.10995 17.612928 1.1831533 7.9299256e-39
-10.111418 17.6136 1.1832181 7.7466133e-39
-10.112588 17.610785 1.1843377 7.7466133e-39
-10.114051 17.611454 1.1844023 7.8395278e-39
-10.115513 17.612122 1.1844671 7.8395278e-39
-10.116976 17.612791 1.1845318 7.8388062e-39
-10.118439 17.613461 1.1845964 7.8388062e-39
-10.119901 17.614128 1.1846611 8.0224771e-39
-10.121364 17.614798 1.184726 8.1146714e-39
-10.122597 17.613062 1.1855134 8.2061481e-39
-10.124056 17.613729 1.1855779 8.2065041e-39
-10.125288 17.612082 1.1863366 7.9299116e-39
-10.126506 17.610361 1.1871165 7.9302689e-39
-10.127958 17.611025 1.1871808 8.1146602e-39
-10.129411 17.611689 1.1872449 8.2064985e-39
-10.130625 17.610054 1.1879961 8.2986941e-39
-10.132315 17.613018 1.1873734 8.3908897e-39
-10.133767 17.613682 1.1874378 8.2072201e-39
-10.13522 17.614346 1.187502 8.1146686e-39
-10.136671 17.615009 1.1875664 7.9302773e-39
-10.139338 17.614138 1.1867903 7.7469679e-39
-10.138124 17.615673 1.1876307 7.9302801e-39
-10.104057 17.610134 1.1845049 8.6656886e-39
-10.105525 17.610806 1.1845697 8.6660487e-39
-10.106993 17.611477 1.1846349 8.6660487e-39
-10.10846 17.612148 1.1846999 8.2987081e-39
-10.109928 17.61282 1.1847647 8.2065125e-39
-10.111397 17.613491 1.1848297 8.0232002e-39
-10.112566 17.610676 1.1859434 8.1153958e-39
-10.114029 17.611345 1.186008 7.9317235e-39
-10.115492 17.612013 1.1860728 7.7473322e-39
-10.117268 17.616177 1.1850896 7.7466105e-39
-10.118417 17.613352 1.1862024 7.7466105e-39
-10.11988 17.614019 1.1862669 8.0224757e-39
-10.121342 17.614689 1.1863317 8.1146714e-39
-10.122576 17.612953 1.1871152 8.2061481e-39
-10.124035 17.613621 1.1871797 8.1143084e-39
-10.125267 17.611975 1.1879348 8.1143028e-39
-10.126485 17.610252 1.1887107 8.0221072e-39
-10.127937 17.610918 1.1887751 7.9299116e-39
-10.12939 17.611582 1.1888392 8.02211e-39
-10.130604 17.609947 1.1895869 8.2065013e-39
-10.132294 17.612909 1.1889678 8.2986969e-39
-10.133746 17.613573 1.1890322 8.2068642e-39
-10.135198 17.614239 1.1890965 8.206867e-39
-10.13665 17.614902 1.1891606 8.0224757e-39
-10.139576 17.616339 1.1876948 8.0224757e-39
-10.138103 17.615566 1.189225 8.0224771e-39
-10.104215 17.612354 1.185416 8.4812973e-39
-10.105504 17.610697 1.1861812 8.5738531e-39
-10.106972 17.611368 1.1862463 8.5738531e-39
-10.108439 17.61204 1.1863112 8.299064e-39
-10.109907 17.612711 1.1863761 8.2068684e-39
-10.111375 17.613382 1.1864411 8.115393e-39
-10.112545 17.610567 1.1875492 8.1161119e-39
-10.114008 17.611237 1.1876138 8.0239163e-39
-10.11547 17.611904 1.1876787 7.839525e-39
-10.116933 17.612574 1.1877434 7.7469679e-39
-10.118396 17.613243 1.187808 7.7469679e-39
-10.119637 17.611511 1.1885881 8.1146686e-39
-10.121096 17.612177 1.1886526 8.2068642e-39
-10.122555 17.612844 1.1887172 8.2986997e-39
-10.124013 17.613512 1.1887817 8.2065041e-39
-10.125245 17.611866 1.189533 8.2072201e-39
-10.126701 17.612532 1.1895974 7.9306332e-39
-10.127916 17.610809 1.1903694 7.746242e-39
-10.129368 17.611473 1.1904335 7.7458861e-39
-10.130582 17.60984 1.1911774 7.9302773e-39
-10.132273 17.612803 1.1905622 8.206867e-39
-10.133724 17.613466 1.1906264 8.206867e-39
-10.135177 17.61413 1.1906908 8.1146728e-39
-10.13689 17.617191 1.1900485 8.0224771e-39
-10.139296 17.613922 1.1899716 8.0224771e-39
-10.138081 17.615458 1.1908193 8.0221212e-39
-10.104194 17.612246 1.187031 8.1125148e-39
-10.105482 17.610588 1.1877928 8.2050705e-39
-10.10695 17.611259 1.1878576 8.1139539e-39
-10.108418 17.611931 1.1879227 8.1139539e-39
-10.109885 17.612602 1.1879876 8.0224771e-39
-10.111354 17.613274 1.1880525 7.9310046e-39
-10.112524 17.610458 1.189155 8.0232002e-39
-10.113986 17.611128 1.1892197 8.2997871e-39
-10.115449 17.611795 1.1892844 8.0232002e-39
-10.116912 17.612465 1.1893492 7.7466105e-39
-10.118155 17.610735 1.1901253 7.7466105e-39
-10.119402 17.609095 1.1908734 8.206867e-39
-10.121074 17.61207 1.1902546 8.2990626e-39
-10.122313 17.610426 1.1910024 8.2990626e-39
-10.123992 17.613403 1.1903838 8.206867e-39
-10.125224 17.611757 1.1911311 8.2990626e-39
-10.126443 17.610037 1.1918993 7.9302801e-39
-10.127894 17.610701 1.1919638 7.6536932e-39
-10.129347 17.611366 1.1920279 7.5614976e-39
-10.130561 17.609732 1.1927681 7.8380859e-39
-10.132503 17.615086 1.1914531 8.1146728e-39
-10.133958 17.615751 1.1915177 8.2065125e-39
-10.135414 17.616417 1.1915822 8.1143168e-39
-10.136869 17.617085 1.1916466 8.0221212e-39
-10.104172 17.612135 1.1886464 8.2054279e-39
-10.105461 17.610479 1.1894041 8.1132322e-39
-10.106929 17.611151 1.1894692 7.9295627e-39
-10.108397 17.611822 1.1895341 8.0217583e-39
-10.109864 17.612494 1.189599 8.0217611e-39
-10.111332 17.613165 1.1896639 8.022124e-39
-10.112502 17.61035 1.1907609 8.022124e-39
-10.113965 17.611019 1.1908255 7.7455371e-39
-10.115428 17.611687 1.1908902 7.6544205e-39
-10.11689 17.612356 1.1909549 7.7466133e-39
-10.118134 17.610626 1.1917273 7.838809e-39
-10.119594 17.611294 1.1917918 7.8388062e-39
-10.121053 17.611961 1.1918565 7.8388062e-39
-10.122512 17.612629 1.1919211 7.8388062e-39
-10.123971 17.613295 1.1919857 8.0224771e-39
-10.125203 17.61165 1.1927294 7.9299256e-39
-10.126658 17.612316 1.1927937 7.8377328e-39
-10.127873 17.610594 1.1935581 7.7455371e-39
-10.129326 17.611258 1.1936222 7.8377328e-39
-10.13054 17.609625 1.1943587 7.9299284e-39
-10.13223 17.612585 1.1937509 8.022124e-39
-10.133682 17.613251 1.193815 7.9299284e-39
-10.135393 17.61631 1.1931802 7.8377328e-39
-10.13806 17.615351 1.1924134 8.022124e-39
-10.136848 17.616976 1.1932448 7.7455371e-39
-10.103971 17.609699 1.1909506 8.2976207e-39
-10.105439 17.610371 1.1910157 8.1139525e-39
-10.106907 17.611042 1.1910807 8.2061495e-39
-10.108375 17.611712 1.1911457 8.2061495e-39
-10.109842 17.612383 1.1912104 8.2057964e-39
-10.111018 17.609571 1.192302 8.2057964e-39
-10.112481 17.610241 1.1923666 8.2057992e-39
-10.113944 17.61091 1.1924313 7.9299312e-39
-10.115406 17.611578 1.1924959 8.0221268e-39
-10.116869 17.612247 1.1925609 7.8388118e-39
-10.118332 17.612917 1.1926255 7.9310074e-39
-10.119794 17.613586 1.1926904 8.0232002e-39
-10.121257 17.614254 1.1927549 8.0232002e-39
-10.122719 17.614923 1.1928197 7.9310018e-39
-10.123949 17.613188 1.1935875 7.9310046e-39
-10.125408 17.613853 1.1936522 7.9299284e-39
-10.1264 17.609821 1.195088 7.8377328e-39
-10.127852 17.610485 1.1951524 7.7455371e-39
-10.12907 17.608854 1.1958852 7.8377328e-39
-10.130519 17.609516 1.1959492 7.9299284e-39
-10.132209 17.612478 1.1953453 8.022124e-39
-10.133661 17.613142 1.1954094 7.9299284e-39
-10.135882 17.620943 1.1934023 7.8377328e-39
-10.138039 17.615242 1.1940079 7.8377356e-39
-10.137081 17.619192 1.1941686 7.8377328e-39
-10.104129 17.611917 1.1918768 8.3898163e-39
-10.1056 17.612589 1.191942 8.3905394e-39
-10.106886 17.610931 1.192692 8.3905408e-39
-10.108354 17.611603 1.192757 8.4827364e-39
-10.109821 17.612274 1.192822 8.3901877e-39
-10.111289 17.612946 1.1928869 8.3901877e-39
-10.112459 17.610132 1.1939723 8.2979948e-39
-10.113922 17.610802 1.1940371 8.1143225e-39
-10.115385 17.611469 1.1941018 8.2065181e-39
-10.116847 17.612139 1.1941665 8.023203e-39
-10.11831 17.612808 1.1942313 8.1153987e-39
-10.119773 17.613478 1.1942959 8.1153958e-39
-10.121235 17.614145 1.1943606 8.1153958e-39
-10.122469 17.612411 1.1951247 8.115393e-39
-10.123928 17.613079 1.1951894 8.0231974e-39
-10.125387 17.613747 1.195254 7.83773e-39
-10.126616 17.612099 1.1959902 7.7455343e-39
-10.128072 17.612764 1.1960546 7.7455343e-39
-10.129283 17.611042 1.196811 7.83773e-39
-10.130735 17.611706 1.1968752 7.9299256e-39
-10.132188 17.61237 1.1969396 8.0221212e-39
-10.133639 17.613035 1.1970037 8.0221212e-39
-10.13535 17.616093 1.1963767 7.9299256e-39
-10.138018 17.615135 1.1956022 7.8377328e-39
-10.13706 17.619083 1.1957704 7.9299256e-39
-10.104107 17.611807 1.1934922 8.3898163e-39
-10.105578 17.61248 1.1935573 8.3905394e-39
-10.106864 17.610823 1.1943035 8.4827364e-39
-10.108521 17.613827 1.1936876 8.5749321e-39
-10.1098 17.612165 1.1944335 8.4823833e-39
-10.110975 17.609354 1.1955134 8.297992e-39
-10.112438 17.610023 1.1955782 8.2057992e-39
-10.113901 17.610693 1.1956428 8.2065181e-39
-10.115363 17.611361 1.1957077 8.2065181e-39
-10.116826 17.61203 1.1957723 8.1153987e-39
-10.118289 17.6127 1.1958371 8.1153987e-39
-10.119751 17.613369 1.1959018 8.1153958e-39
-10.121214 17.614037 1.1959666 8.1153958e-39
-10.122448 17.612303 1.1967266 8.115393e-39
-10.123907 17.61297 1.1967914 8.0231974e-39
-10.125366 17.613638 1.1968559 7.8380859e-39
-10.126595 17.61199 1.1975883 7.7458903e-39
-10.12781 17.61027 1.198341 7.7458889e-39
-10.129262 17.610933 1.1984053 7.8380859e-39
-10.130714 17.611599 1.1984695 8.0224757e-39
-10.132167 17.612263 1.1985339 8.1146728e-39
-10.133618 17.612926 1.198598 8.0224757e-39
-10.135071 17.61359 1.1986623 7.9302815e-39
-10.138262 17.617424 1.1965055 7.9299256e-39
-10.137038 17.618977 1.1973726 8.0224757e-39
-10.103908 17.609371 1.1957852 8.2976207e-39
-10.105375 17.610043 1.19585 8.2983438e-39
-10.106843 17.610714 1.1959151 8.3905408e-39
-10.108311 17.611385 1.1959798 8.3905408e-39
-10.109491 17.608578 1.1970545 8.3901877e-39
-10.110954 17.609245 1.1971192 8.2057964e-39
-10.112417 17.609915 1.1971841 8.1136036e-39
-10.113879 17.610584 1.1972488 8.1143225e-39
-10.115342 17.611252 1.1973134 8.1143225e-39
-10.116805 17.611921 1.1973782 8.023203e-39
-10.118267 17.612591 1.1974429 8.023203e-39
-10.11973 17.61326 1.1975076 8.0232002e-39
-10.120967 17.611526 1.198264 8.0232002e-39
-10.122426 17.612194 1.1983287 7.9310018e-39
-10.123885 17.612862 1.1983932 7.8388062e-39
-10.125344 17.613529 1.1984578 7.9302801e-39
-10.126574 17.611883 1.1991866 7.8380845e-39
-10.127789 17.610163 1.1999353 7.7458861e-39
-10.129241 17.610826 1.1999996 7.8380845e-39
-10.130693 17.61149 1.2000638 8.0224729e-39
-10.132145 17.612154 1.2001281 8.0224757e-39
-10.133597 17.612818 1.2001923 8.0224729e-39
-10.13505 17.613483 1.2002567 7.9302801e-39
-10.13824 17.617317 1.1981037 7.9302815e-39
-10.136764 17.616543 1.1996374 8.0224729e-39
-10.103886 17.609262 1.1973965 8.2054251e-39
-10.105353 17.609934 1.1974615 8.1139525e-39
-10.106821 17.610605 1.1975263 8.2061495e-39
-10.108289 17.611277 1.1975914 8.2983452e-39
-10.10947 17.608469 1.1986601 8.2057964e-39
-10.110933 17.609137 1.198725 8.1136008e-39
-10.112395 17.609806 1.1987897 8.1136036e-39
-10.113858 17.610476 1.1988546 8.0221268e-39
-10.115321 17.611143 1.1989191 8.1143225e-39
-10.116783 17.611813 1.1989839 7.9310074e-39
-10.118246 17.612482 1.1990486 7.9310074e-39
-10.119709 17.613152 1.1991135 7.9310046e-39
-10.121171 17.613819 1.1991781 7.838809e-39
-10.122634 17.614489 1.1992428 7.8388062e-39
-10.123864 17.612753 1.1999952 7.7466105e-39
-10.125323 17.61342 1.2000595 8.0224757e-39
-10.126553 17.611774 1.2007847 7.9302773e-39
-10.127768 17.610054 1.2015296 7.8380817e-39
-10.12922 17.610718 1.2015938 7.8380817e-39
-10.130434 17.609087 1.2023119 7.9302773e-39
-10.132124 17.612047 1.2017225 8.0224729e-39
-10.133576 17.612711 1.2017868 7.9302773e-39
-10.135028 17.613375 1.201851 7.8380817e-39
