# .PCD v0.7 - Point Cloud Data file format
VERSION 0.7
FIELDS x y z rgb
SIZE 4 4 4 4
TYPE F F F F
COUNT 1 1 1 1
WIDTH 1050
HEIGHT 1
VIEWPOINT 0 0 0 1 0 0 0
POINTS 1050
DATA ascii
-3.28795 17.977722 0.70021236 1.6318615e-38
-3.275409 17.978121 0.69970834 1.6410811e-38
-3.2628679 17.978521 0.69920427 1.6318615e-38
-3.2503269 17.978922 0.69870019 1.6318615e-38
-3.2377858 17.979321 0.69819617 1.622642e-38
-3.2252448 17.979721 0.69769198 1.6134224e-38
-3.2127037 17.98012 0.69718778 1.6134224e-38
-3.2001629 17.98052 0.6966837 1.6042028e-38
-3.1876218 17.980919 0.69617963 1.6042028e-38
-3.1750808 17.981319 0.69567555 1.6042026e-38
-3.16254 17.98172 0.69517154 1.594983e-38
-3.1499984 17.982119 0.6946674 1.5949833e-38
-3.1374578 17.982519 0.69416314 1.5949477e-38
-3.1249168 17.982918 0.69365919 1.5949478e-38
-3.1123757 17.983318 0.69315499 1.5857285e-38
-3.0998347 17.983717 0.69265091 1.5857285e-38
-3.0872936 17.984118 0.69214684 1.5857285e-38
-3.090889 17.860703 0.70634019 1.5857283e-38
-3.0785809 17.861094 0.70584553 1.5765086e-38
-3.066273 17.861486 0.7053507 1.5673246e-38
-3.0539649 17.861879 0.70485604 1.567324e-38
-3.0581021 17.742945 0.71855855 1.585691e-38
-5.4176178 17.7871 0.78754282 5.8166554e-39
-5.4053102 17.787493 0.78704804 6.0910703e-39
-5.393002 17.787886 0.78655332 6.1800177e-39
-5.3806939 17.788277 0.78605866 6.0838606e-39
-5.3683858 17.78867 0.78556383 5.8054618e-39
-5.3560777 17.789062 0.78506917 5.8061639e-39
-5.3437696 17.789454 0.78457445 7.1901577e-39
-5.3314614 17.789846 0.78407967 1.0324429e-38
-5.3191538 17.790239 0.78358507 1.1246386e-38
-5.3326564 17.91312 0.76984566 8.9400796e-39
-5.3201156 17.913519 0.76934147 7.3727651e-39
-5.3075747 17.913919 0.76883733 7.5582368e-39
-5.2950335 17.91432 0.76833338 7.1908934e-39
-5.2824926 17.914719 0.76782924 8.5752614e-39
-5.2964487 18.046848 0.75303525 1.1341853e-38
-5.2836571 18.047256 0.75252128 1.3462367e-38
-5.2708654 18.047663 0.75200713 1.4014823e-38
-5.2580743 18.048071 0.75149298 1.4290688e-38
-5.2452826 18.048479 0.75097871 1.4197764e-38
-5.2324915 18.048887 0.75046444 1.4197037e-38
-5.2196999 18.049294 0.74995047 1.4658012e-38
-5.2069082 18.049702 0.7494362 1.4473624e-38
-5.1941166 18.05011 0.74892193 1.4289955e-38
-5.1570826 17.918716 0.7627883 1.4289955e-38
-5.1445413 17.919115 0.7622844 1.4289955e-38
-5.1320004 17.919516 0.7617802 1.4289955e-38
-5.1194592 17.919916 0.76127601 1.4382151e-38
-5.1069183 17.920315 0.76077181 1.4382151e-38
-5.094377 17.920715 0.76026785 1.4382151e-38
-5.1045761 18.052963 0.74532282 1.4105564e-38
-5.0917845 18.053371 0.74480879 1.419776e-38
-5.0789933 18.05378 0.74429458 1.4289957e-38
-5.0442133 17.922314 0.75825149 1.4382153e-38
-5.031672 17.922714 0.75774729 1.4474348e-38
-5.0406189 18.055002 0.74275225 1.4382153e-38
-5.0278273 18.05541 0.74223799 1.4289957e-38
-4.9940491 17.923912 0.75623512 1.4289955e-38
-4.9815083 17.924313 0.75573093 1.4382151e-38
-4.968967 17.924713 0.75522685 1.4382151e-38
-4.9766612 18.057041 0.74018115 1.4289955e-38
-4.96387 18.057449 0.73966706 1.4289955e-38
-4.9510784 18.057858 0.73915291 1.4289955e-38
-4.9382868 18.058264 0.73863876 1.4289955e-38
-4.9254951 18.058672 0.73812461 1.4382151e-38
-4.9127035 18.05908 0.73761052 1.4382151e-38
-4.9187455 18.192175 0.72241569 1.4197761e-38
-4.9057021 18.192591 0.72189146 1.4197761e-38
-4.8926587 18.193007 0.72136718 1.4289957e-38
-4.8796153 18.193422 0.72084278 1.4382153e-38
-4.8665719 18.193838 0.72031862 1.4382153e-38
-4.8535285 18.194254 0.71979421 1.4382153e-38
-4.8231635 18.061934 0.73401129 1.4382153e-38
-4.8103719 18.062342 0.73349702 1.4289957e-38
-4.7975802 18.06275 0.73298299 1.4289955e-38
-4.7847891 18.063156 0.73246884 1.4289955e-38
-4.7719975 18.063564 0.73195469 1.4382151e-38
-4.7432289 17.931908 0.74615312 1.4474347e-38
-4.7306876 17.932306 0.74564898 1.4474347e-38
-4.7336226 18.064787 0.73041219 1.4566542e-38
-4.7208314 18.065195 0.72989804 1.4658738e-38
-4.7080398 18.065603 0.72938389 1.4658738e-38
-4.6952481 18.066011 0.72886968 1.4382151e-38
-4.682457 18.06642 0.72835535 1.4474347e-38
-4.6839652 18.199659 0.7129786 1.4474347e-38
-4.6709218 18.200075 0.71245426 1.4566542e-38
-4.6578784 18.200491 0.71192992 1.4566542e-38
-4.6312909 18.068048 0.72629881 1.4566542e-38
-4.6184993 18.068457 0.72578466 1.4566542e-38
-4.6057076 18.068865 0.72527051 1.4566542e-38
-4.592916 18.069273 0.7247563 1.4567263e-38
-4.5801249 18.069681 0.72424215 1.4475067e-38
-4.5673332 18.070087 0.723728 1.4475067e-38
-4.5545416 18.070496 0.72321397 1.4475067e-38
-4.5417504 18.070904 0.7226997 1.4474711e-38
-4.5289588 18.071312 0.72218543 1.4105929e-38
-4.5161672 18.071718 0.72167128 1.3460559e-38
-4.503376 18.072126 0.72115719 1.2999581e-38
-4.5013585 18.205479 0.70563847 1.2907385e-38
-4.4883151 18.205894 0.70511425 1.2538603e-38
-4.4752722 18.20631 0.70459008 1.2170176e-38
-4.4522099 18.073757 0.71910048 1.2077979e-38
-4.4394183 18.074165 0.71858639 1.226237e-38
-4.4266267 18.074572 0.71807218 1.2446759e-38
-4.413835 18.074982 0.71755809 1.2446759e-38
-4.4010439 18.075388 0.71704382 1.2262368e-38
-4.3795395 17.943501 0.73153436 1.2261652e-38
-4.3669987 17.943899 0.73103017 1.2261652e-38
-4.3544574 17.9443 0.73052627 1.2353847e-38
-4.357882 18.210052 0.69987142 1.2538239e-38
-4.3448386 18.210468 0.69934702 1.2630434e-38
-4.3317952 18.210884 0.69882274 1.272263e-38
-4.3187518 18.2113 0.69829845 1.2814825e-38
-4.2987118 18.078651 0.71293062 1.2907021e-38
-4.2859201 18.079058 0.71241647 1.2814825e-38
-4.273129 18.079466 0.71190214 1.272263e-38
-4.2603374 18.079874 0.71138817 1.2907021e-38
-4.2475457 18.08028 0.7108739 1.3367999e-38
-4.2347541 18.08069 0.71035975 1.355239e-38
-4.2219629 18.081097 0.7098456 1.355239e-38
-4.2091713 18.081505 0.70933133 1.3644586e-38
-4.1963797 18.081913 0.70881712 1.3921173e-38
-4.1835885 18.082319 0.70830309 1.3921529e-38
-4.1707969 18.082727 0.70778894 1.4013725e-38
-4.1622319 18.21629 0.69200712 1.410592e-38
-4.1491885 18.216705 0.69148278 1.4198113e-38
-4.1324224 18.08395 0.70624638 1.4290309e-38
-4.1196308 18.084358 0.70573229 1.4290309e-38
-4.1068392 18.084766 0.70521814 1.4290309e-38
-4.094048 18.085173 0.70470387 1.4290309e-38
-4.0812564 18.085583 0.70418978 1.465981e-38
-4.0684648 18.085989 0.70367545 1.4844201e-38
-4.0556731 18.086397 0.70316142 1.4936041e-38
-4.042882 18.086805 0.70264727 1.5120432e-38
-4.0300903 18.087214 0.70213318 1.5673609e-38
-4.0172987 18.08762 0.70161891 1.6042391e-38
-4.0045075 18.088028 0.70110476 1.5765806e-38
-3.9917159 18.088436 0.70059061 1.5212632e-38
-3.9789243 18.088842 0.70007634 1.5489218e-38
-3.9661329 18.089251 0.69956225 1.5489218e-38
-3.9533412 18.089659 0.69904804 1.5581413e-38
-3.9405499 18.090067 0.69853407 1.5581413e-38
-3.9277585 18.090475 0.6980198 1.5673609e-38
-3.9149668 18.090881 0.69750565 1.5673609e-38
-3.902981 17.958691 0.71237874 1.5673609e-38
-3.8893838 18.091698 0.69647723 1.5765804e-38
-3.8765924 18.092106 0.69596314 1.5673606e-38
-3.8638008 18.092512 0.69544899 1.5673606e-38
-3.8510094 18.09292 0.69493473 1.5765802e-38
-3.8382177 18.093328 0.69442058 1.5765802e-38
-3.8254263 18.093737 0.69390643 1.5673606e-38
-3.8126347 18.094143 0.69339228 1.5765802e-38
-3.7998433 18.094551 0.69287819 1.5857997e-38
-3.7870519 18.094959 0.69236404 1.6042389e-38
-3.7742603 18.095367 0.69184989 1.5950196e-38
-3.7650299 17.963087 0.70683366 1.5858e-38
-3.7486773 18.096182 0.69082147 1.5858e-38
-3.7399478 17.963886 0.70582551 1.5858e-38
-3.727407 17.964287 0.70532131 1.5858e-38
-3.7148659 17.964685 0.70481718 1.5950196e-38
-3.7023249 17.965086 0.70431322 1.6042391e-38
-3.6897838 17.965487 0.70380914 1.6042391e-38
-3.6772428 17.965885 0.70330495 1.6042391e-38
-3.6647017 17.966286 0.70280087 1.6042391e-38
-3.6521609 17.966684 0.70229685 1.6042391e-38
-3.6396198 17.967085 0.70179272 1.6042391e-38
-3.6270788 17.967484 0.70128858 1.5950196e-38
-3.6145377 17.967884 0.7007845 1.5950196e-38
-3.6019967 17.968283 0.70028031 1.5950196e-38
-3.5894558 17.968683 0.69977623 1.5950196e-38
-3.5769145 17.969084 0.69927233 1.6042393e-38
-3.5643737 17.969482 0.69876808 1.6042393e-38
-3.5518327 17.969883 0.69826406 1.6134588e-38
-3.5392919 17.970284 0.69776005 1.6226784e-38
-3.5267506 17.970682 0.69725579 1.6226784e-38
-3.5142095 17.971083 0.69675165 1.6226784e-38
-3.5016687 17.971481 0.6962477 1.6134587e-38
-3.4891276 17.971882 0.6957435 1.6134587e-38
-3.4765866 17.972282 0.69523942 1.6226783e-38
-3.4640455 17.972681 0.69473535 1.6226783e-38
-3.4515047 17.973082 0.69423133 1.6134587e-38
-3.4389637 17.97348 0.69372725 1.6042391e-38
-3.4264224 17.973881 0.69322306 1.6042389e-38
-3.4138815 17.974279 0.69271886 1.6042389e-38
-3.4013405 17.97468 0.69221479 1.6134584e-38
-3.3887994 17.97508 0.69171077 1.6134584e-38
-3.3762586 17.975479 0.69120669 1.6134224e-38
-3.3521409 18.108822 0.67488229 1.6134224e-38
-3.3393495 18.10923 0.6743682 1.622642e-38
-3.3265579 18.109638 0.67385417 1.622642e-38
-3.3260944 17.977077 0.68919027 1.622642e-38
-3.3009751 18.110453 0.67282575 1.622642e-38
-3.3010125 17.977877 0.68818218 1.622642e-38
-3.2884715 17.978277 0.68767798 1.6318615e-38
-3.2759304 17.978676 0.6871739 1.6318615e-38
-3.2633893 17.979076 0.68666983 1.6318615e-38
-3.2508483 17.979477 0.68616563 1.622642e-38
-3.2383075 17.979876 0.68566161 1.622642e-38
-3.2257662 17.980276 0.68515742 1.6134224e-38
-3.2132254 17.980677 0.68465334 1.6042028e-38
-3.2006843 17.981075 0.68414927 1.6042028e-38
-3.1881435 17.981476 0.68364525 1.6042028e-38
-3.1756024 17.981874 0.68314117 1.594983e-38
-3.1630614 17.982275 0.6826371 1.594983e-38
-3.1505201 17.982676 0.68213302 1.5949833e-38
-3.1379795 17.983074 0.68162894 1.5857281e-38
-3.1254382 17.983475 0.68112481 1.5857283e-38
-3.1128974 17.983873 0.68062061 1.5857283e-38
-3.1160166 17.860464 0.69502807 1.5857285e-38
-3.1037087 17.860855 0.69453335 1.576509e-38
-3.0914006 17.861248 0.69403863 1.5765087e-38
-3.0790927 17.861641 0.69354397 1.5765086e-38
-3.082772 17.74271 0.70745289 1.5673246e-38
-3.0706882 17.743095 0.70696712 1.5581045e-38
-3.0586047 17.743479 0.7064814 1.585691e-38
-5.4460473 17.910078 0.76184827 5.723378e-39
-5.4058218 17.788038 0.77474666 6.0907087e-39
-5.3935137 17.788429 0.77425188 6.2722105e-39
-5.3812056 17.788822 0.77375722 6.2689679e-39
-5.3688974 17.789215 0.77326238 6.1749632e-39
-5.3565893 17.789608 0.77276772 5.6217726e-39
-5.3442817 17.789999 0.772273 6.8210193e-39
-5.3319736 17.790392 0.77177835 9.9556497e-39
-5.3196654 17.790785 0.77128339 1.0969802e-38
-5.3073573 17.791176 0.77078885 8.7556884e-39
-5.3206372 17.914076 0.75680721 7.2805695e-39
-5.3080959 17.914474 0.75630313 7.3738455e-39
-5.3225636 18.046598 0.74127901 6.8221109e-39
-5.2830138 17.915276 0.75529492 8.4830657e-39
-5.2969804 18.047415 0.74025065 1.1341853e-38
-5.2841892 18.047823 0.7397365 1.3554918e-38
-5.2713976 18.048231 0.73922241 1.4199214e-38
-5.258606 18.048637 0.7387082 1.447508e-38
-5.2458148 18.049046 0.73819411 1.4474351e-38
-5.2330232 18.049454 0.73767996 1.4473624e-38
-5.2202315 18.049862 0.73716569 1.4934599e-38
-5.2074399 18.050268 0.73665154 1.4473624e-38
-5.170145 17.918873 0.75075811 1.4289955e-38
-5.1576037 17.919271 0.75025403 1.4289955e-38
-5.1450629 17.919672 0.74974996 1.4289955e-38
-5.1325216 17.920071 0.74924576 1.4289955e-38
-5.1199808 17.920471 0.74874175 1.4382151e-38
-5.10744 17.92087 0.74823761 1.4382151e-38
-5.0948987 17.92127 0.74773347 1.4382151e-38
-5.0823579 17.921671 0.7472294 1.419776e-38
-5.0698166 17.92207 0.74672532 1.419776e-38
-5.0572758 17.92247 0.74622118 1.4289957e-38
-5.0447345 17.922869 0.74571717 1.4382153e-38
-5.0321937 17.923269 0.74521303 1.4382153e-38
-5.0411506 18.055569 0.72996747 1.4382153e-38
-5.0283594 18.055977 0.72945321 1.4382153e-38
-4.9945707 17.924469 0.74370074 1.4289955e-38
-4.9820294 17.924868 0.74319679 1.4382507e-38
-4.9694886 17.925268 0.74269259 1.4382507e-38
-4.9569478 17.925669 0.74218851 1.4290311e-38
-4.9644017 18.058016 0.7268824 1.4289955e-38
-4.9516101 18.058424 0.72636813 1.4289955e-38
-4.9388185 18.058832 0.72585404 1.4289955e-38
-4.9260273 18.059238 0.72533983 1.4382151e-38
-4.9323311 18.192337 0.70990354 1.4382151e-38
-4.9192877 18.192753 0.7093792 1.4197761e-38
-4.9062443 18.193169 0.70885491 1.4197761e-38
-4.8932014 18.193584 0.70833051 1.4289957e-38
-4.8801579 18.194 0.70780623 1.4382153e-38
-4.8671145 18.194416 0.70728207 1.4382153e-38
-4.8540711 18.194832 0.70675766 1.4382155e-38
-4.8236952 18.0625 0.72122651 1.4382155e-38
-4.8109035 18.062908 0.72071236 1.428996e-38
-4.7981124 18.063316 0.72019833 1.4289957e-38
-4.7853208 18.063725 0.71968424 1.4289955e-38
-4.7725291 18.064131 0.71916997 1.4382151e-38
-4.7597375 18.064539 0.71865582 1.4382151e-38
-4.7312093 17.932863 0.73311466 1.4474347e-38
-4.7341547 18.065355 0.71762741 1.4474347e-38
-4.7213631 18.065762 0.71711326 1.4566542e-38
-4.7085714 18.06617 0.71659911 1.4566542e-38
-4.6957803 18.066578 0.7160849 1.4382151e-38
-4.6829886 18.066986 0.71557075 1.4474347e-38
-4.6845078 18.200237 0.69994205 1.4474347e-38
-4.6714644 18.200653 0.69941765 1.4566542e-38
-4.6446142 18.068209 0.7140283 1.4566542e-38
-4.6318226 18.068617 0.71351415 1.4566542e-38
-4.6190314 18.069023 0.71299988 1.4566542e-38
-4.6062398 18.069431 0.71248579 1.4566542e-38
-4.5807171 17.93766 0.72706562 1.4567263e-38
-4.5681763 17.938059 0.72656155 1.4567263e-38
-4.5556355 17.938459 0.72605747 1.4567263e-38
-4.5550737 18.071062 0.71042919 1.4567263e-38
-4.5422821 18.07147 0.7099151 1.4566907e-38
-4.5294905 18.071878 0.70940077 1.4382515e-38
-4.5166993 18.072287 0.70888668 1.4013733e-38
-4.5039077 18.072693 0.70837241 1.3737146e-38
-4.5019011 18.206057 0.69260204 1.364495e-38
-4.4888577 18.206472 0.6920777 1.3645306e-38
-4.4758143 18.206888 0.69155353 1.3645306e-38
-4.4627709 18.207304 0.69102913 1.3737501e-38
-4.43995 18.074732 0.70580161 1.3921892e-38
-4.4271588 18.07514 0.70528758 1.3921889e-38
-4.4143672 18.075546 0.70477331 1.3829693e-38
-4.4015756 18.075956 0.70425922 1.3737498e-38
-4.3887844 18.076363 0.70374507 1.4105564e-38
-4.3675199 17.944456 0.71849602 1.419776e-38
-4.354979 17.944855 0.71799183 1.4289955e-38
-4.3584242 18.21063 0.68683487 1.4382151e-38
-4.3453813 18.211046 0.68631047 1.4474347e-38
-4.3323379 18.211462 0.68578619 1.4658738e-38
-4.3192945 18.211878 0.68526191 1.4750934e-38
-4.2992439 18.079218 0.70014596 1.4750934e-38
-4.2864523 18.079626 0.69963169 1.4658738e-38
-4.2736607 18.080032 0.69911754 1.4474347e-38
-4.260869 18.080441 0.69860339 1.4566542e-38
-4.2480779 18.080849 0.69808912 1.4843129e-38
-4.2352862 18.081255 0.69757497 1.5027521e-38
-4.2224946 18.081663 0.69706088 1.4843129e-38
-4.2097034 18.082071 0.69654667 1.4935325e-38
-4.1969118 18.082479 0.69603246 1.5211912e-38
-4.1841202 18.082888 0.69551843 1.5212268e-38
-4.1713285 18.083294 0.69500428 1.5212268e-38
-4.1585374 18.083702 0.69449002 1.5212268e-38
-4.1457458 18.08411 0.69397587 1.5304463e-38
-4.1329541 18.084518 0.69346178 1.5304461e-38
-4.120163 18.084925 0.69294751 1.5396656e-38
-4.1073713 18.085333 0.69243336 1.5396656e-38
-4.0945797 18.085741 0.69191921 1.5488852e-38
-4.0817881 18.086147 0.69140494 1.5673962e-38
-4.0689969 18.086557 0.69089085 1.5766158e-38
-4.0562053 18.086964 0.69037676 1.558141e-38
-4.0434136 18.087372 0.68986267 1.5397019e-38
-4.0306225 18.08778 0.6893484 1.5673609e-38
-4.0178308 18.088188 0.68883425 1.6042391e-38
-4.0050392 18.088594 0.68831998 1.5858001e-38
-3.9922478 18.089003 0.68780583 1.5489219e-38
-3.9794564 18.089411 0.68729174 1.5489218e-38
-3.9666648 18.089817 0.68677759 1.5489218e-38
-3.9538734 18.090225 0.68626332 1.5489218e-38
-3.9410818 18.090633 0.68574929 1.5581413e-38
-3.9282904 18.091042 0.68523508 1.5673609e-38
-3.9154987 18.09145 0.68472087 1.5673609e-38
-3.9035025 17.959246 0.69984442 1.5673609e-38
-3.8899157 18.092264 0.68369251 1.5673609e-38
-3.8784206 17.960045 0.69883615 1.5673606e-38
-3.8643329 18.093081 0.68266422 1.5765802e-38
-3.8515413 18.093487 0.68215007 1.5765802e-38
-3.8387499 18.093895 0.68163598 1.5765802e-38
-3.8259583 18.094303 0.68112171 1.5673606e-38
-3.8131669 18.094711 0.68060768 1.5765802e-38
-3.8003752 18.095118 0.68009341 1.5950193e-38
-3.7875838 18.095526 0.67957926 1.6042389e-38
-3.7747924 18.095934 0.67906517 1.5858e-38
-3.7655513 17.963642 0.69429934 1.5858e-38
-3.7492094 18.09675 0.67803687 1.5858e-38
-3.7404695 17.964443 0.69329125 1.5858e-38
-3.7279284 17.964842 0.69278705 1.5858e-38
-3.7153873 17.965242 0.69228297 1.5950196e-38
-3.7028463 17.965641 0.69177878 1.5950196e-38
-3.6903055 17.966042 0.69127482 1.6042391e-38
-3.6777644 17.96644 0.69077069 1.5950196e-38
-3.6652234 17.966841 0.69026661 1.5950196e-38
-3.6526823 17.967241 0.68976253 1.5950196e-38
-3.6401412 17.96764 0.68925846 1.5950196e-38
-3.6276004 17.96804 0.6887542 1.5950196e-38
-3.6150591 17.968439 0.68825018 1.5950196e-38
-3.6025183 17.96884 0.68774605 1.5950196e-38
-3.5899773 17.969238 0.68724197 1.5950196e-38
-3.5774362 17.969639 0.6867379 1.6042393e-38
-3.5648952 17.970039 0.68623388 1.6042393e-38
-3.5523543 17.970438 0.68572974 1.6134588e-38
-3.5398133 17.970839 0.68522561 1.6134588e-38
-3.527272 17.971239 0.68472153 1.6134588e-38
-3.5147312 17.971638 0.68421733 1.6134588e-38
-3.5021901 17.972038 0.68371326 1.6134587e-38
-3.4896493 17.972437 0.68320918 1.6134587e-38
-3.477108 17.972837 0.68270516 1.6226783e-38
-3.4645672 17.973236 0.68220109 1.6226783e-38
-3.4520261 17.973637 0.68169701 1.6134587e-38
-3.4394851 17.974037 0.68119282 1.6134587e-38
-3.426944 17.974436 0.68068862 1.6042389e-38
-3.414403 17.974836 0.68018472 1.6042389e-38
-3.4018621 17.975235 0.67968053 1.6134584e-38
-3.3893211 17.975636 0.67917645 1.6134584e-38
-3.37678 17.976034 0.67867237 1.6134224e-38
-3.3526728 18.109388 0.66209763 1.6134224e-38
-3.3398814 18.109797 0.66158342 1.6134224e-38
-3.3270898 18.110205 0.66106939 1.622642e-38
-3.326616 17.977634 0.67665589 1.622642e-38
-3.301507 18.111019 0.66004109 1.622642e-38
-3.2887154 18.111427 0.65952682 1.622642e-38
-3.2759237 18.111835 0.65901273 1.622642e-38
-3.2631323 18.112244 0.65849859 1.6134224e-38
-3.263911 17.979633 0.67413557 1.6134224e-38
-3.25137 17.980032 0.67363149 1.6134224e-38
-3.2388291 17.980433 0.67312729 1.6134224e-38
-3.2262878 17.980831 0.6726231 1.6134224e-38
-3.2137468 17.981232 0.67211908 1.6134224e-38
-3.201206 17.98163 0.671615 1.6134224e-38
-3.1886649 17.982031 0.67111093 1.6134224e-38
-3.1761239 17.982431 0.67060691 1.5857634e-38
-3.163583 17.98283 0.67010266 1.5857634e-38
-3.1510415 17.983231 0.6695987 1.5857637e-38
-3.1385007 17.983629 0.66909456 1.5857637e-38
-3.1259599 17.98403 0.66859037 1.5765086e-38
-3.1288366 17.860617 0.68322146 1.5765087e-38
-3.1165285 17.861008 0.68272662 1.576509e-38
-3.1042206 17.861401 0.68223196 1.5765087e-38
-3.0919125 17.861794 0.68173724 1.5765087e-38
-3.0953579 17.742859 0.69586164 1.567289e-38
-3.0832744 17.743244 0.69537592 1.5673246e-38
-3.0711906 17.743629 0.69489008 1.567324e-38
-3.0591073 17.744015 0.69440442 1.585691e-38
-5.4765935 18.042273 0.7346642 5.5386224e-39
-5.4340277 17.911034 0.74880981 5.9066706e-39
-5.4214869 17.911432 0.74830544 6.0892556e-39
-5.3817177 17.789368 0.76145583 6.2700441e-39
-5.3694096 17.789761 0.760961 6.1760394e-39
-5.3571014 17.790152 0.76046616 5.5302959e-39
-5.3447933 17.790545 0.75997162 6.7288236e-39
-5.3324852 17.790937 0.75947678 9.7712584e-39
-5.3201776 17.79133 0.75898194 1.078541e-38
-5.307869 17.791721 0.7584874 8.9400796e-39
-5.3211584 17.914631 0.74427283 7.5571564e-39
-5.3086176 17.915031 0.74376875 7.5582368e-39
-5.3230953 18.047167 0.72849429 6.9143051e-39
-5.2835355 17.915831 0.74276054 8.4830629e-39
-5.2975125 18.047981 0.72746599 1.1342209e-38
-5.2584534 17.91663 0.74175239 1.3554918e-38
-5.2459126 17.91703 0.74124831 1.4199214e-38
-5.2333713 17.917429 0.74074423 1.447508e-38
-5.2208304 17.91783 0.74023998 1.4474351e-38
-5.2082891 17.918228 0.73973602 1.4381428e-38
-5.1957483 17.918629 0.73923182 1.4750208e-38
-5.1832075 17.919029 0.73872775 1.4473624e-38
-5.1951804 18.051243 0.72335267 1.4290311e-38
-5.1581254 17.919828 0.73771966 1.4290311e-38
-5.1455846 17.920227 0.73721558 1.4290311e-38
-5.1330433 17.920628 0.73671138 1.4289955e-38
-5.1205025 17.921026 0.73620719 1.4382151e-38
-5.1079612 17.921427 0.73570311 1.4382151e-38
-5.0954204 17.921825 0.73519903 1.4382151e-38
-5.0828791 17.922226 0.73469502 1.4289955e-38
-5.0703382 17.922625 0.73419088 1.4289955e-38
-5.0577974 17.923025 0.73368675 1.4289957e-38
-5.0452561 17.923426 0.73318279 1.4289957e-38
-5.0327153 17.923824 0.73267871 1.4289957e-38
-5.0201745 17.924225 0.73217446 1.4289957e-38
-5.0076332 17.924623 0.73167044 1.4382153e-38
-4.9950924 17.925024 0.73116624 1.4382151e-38
-4.9825511 17.925425 0.73066223 1.4382507e-38
-4.9700103 17.925823 0.73015815 1.4382504e-38
-4.977725 18.058174 0.71461189 1.4290309e-38
-4.9649339 18.058582 0.71409762 1.4290311e-38
-4.9521422 18.05899 0.71358347 1.4290311e-38
-4.9589601 18.192085 0.69791555 1.4290311e-38
-4.9459167 18.192499 0.69739127 1.4382151e-38
-4.9328737 18.192917 0.69686699 1.4382151e-38
-4.9198303 18.193331 0.69634283 1.4197761e-38
-4.9067869 18.193747 0.69581848 1.4197761e-38
-4.8937435 18.194162 0.6952942 1.428996e-38
-4.8807001 18.194578 0.69476992 1.4382155e-38
-4.8676567 18.194994 0.69424552 1.4382155e-38
-4.8370185 18.06266 0.708956 1.4381799e-38
-4.8415704 18.195826 0.69319701 1.4381799e-38
-4.8114357 18.063475 0.7079277 1.428996e-38
-4.7986441 18.063883 0.70741361 1.4289957e-38
-4.7858529 18.064291 0.7068994 1.4289955e-38
-4.7730613 18.064699 0.7063852 1.4289955e-38
-4.7602696 18.065105 0.70587105 1.4289955e-38
-4.747478 18.065514 0.7053569 1.4382151e-38
-4.7346864 18.065922 0.70484275 1.4382151e-38
-4.7218952 18.06633 0.7043286 1.4382151e-38
-4.7091036 18.066736 0.70381439 1.4382151e-38
-4.696312 18.067144 0.70330012 1.4382151e-38
-4.6835208 18.067553 0.70278609 1.4474347e-38
-4.68505 18.200815 0.68690562 1.4474347e-38
-4.6720066 18.201231 0.68638116 1.4566542e-38
-4.6451464 18.068775 0.70124358 1.4566542e-38
-4.6323547 18.069183 0.70072943 1.4566542e-38
-4.6195631 18.069592 0.70021528 1.4566542e-38
-4.6067715 18.069998 0.69970101 1.4566542e-38
-4.5939803 18.070406 0.69918686 1.4567263e-38
-4.5686979 17.938616 0.71402717 1.4567263e-38
-4.5561566 17.939016 0.71352297 1.4567263e-38
-4.5556059 18.071629 0.69764441 1.4567263e-38
-4.5428143 18.072037 0.69713032 1.4567263e-38
-4.5300226 18.072445 0.69661605 1.4475067e-38
-4.517231 18.072853 0.6961019 1.4290676e-38
-4.5044398 18.073259 0.69558775 1.419848e-38
-4.5024438 18.206635 0.67956549 1.4567263e-38
-4.4894004 18.207052 0.67904139 1.4751654e-38
-4.476357 18.207468 0.67851698 1.5028241e-38
-4.4633136 18.207882 0.67799258 1.5120435e-38
-4.4404821 18.0753 0.69301683 1.5028239e-38
-4.4276905 18.075706 0.6925028 1.5028239e-38
-4.4148993 18.076115 0.69198859 1.5028237e-38
-4.4021077 18.076521 0.6914745 1.5028237e-38
-4.3805828 17.944613 0.70646566 1.4750934e-38
-4.3680415 17.945011 0.70596153 1.4843129e-38
-4.3555007 17.945412 0.70545745 1.4843129e-38
-4.3589668 18.211208 0.67379844 1.4843129e-38
-4.3459234 18.211624 0.67327404 1.4935325e-38
-4.33288 18.21204 0.67274982 1.4935325e-38
-4.3125672 18.079376 0.68787533 1.5027521e-38
-4.2997756 18.079784 0.68736118 1.5027521e-38
-4.2869844 18.080193 0.68684703 1.5304107e-38
-4.2741928 18.080601 0.68633294 1.5027521e-38
-4.2614012 18.081007 0.68581867 1.5027521e-38
-4.2486095 18.081415 0.68530446 1.5304107e-38
-4.2358184 18.081823 0.68479037 1.5304107e-38
-4.2230268 18.08223 0.68427604 1.5119716e-38
-4.2102351 18.082638 0.68376195 1.5119716e-38
-4.1974435 18.083046 0.68324769 1.5396303e-38
-4.1846523 18.083454 0.68273365 1.558105e-38
-4.1718607 18.083862 0.68221956 1.5488855e-38
-4.1590691 18.084269 0.68170542 1.5304823e-38
-4.1462779 18.084677 0.68119115 1.5212628e-38
-4.1334863 18.085085 0.680677 1.5212628e-38
-4.1206946 18.085493 0.68016285 1.5304823e-38
-4.107903 18.085899 0.67964858 1.5397019e-38
-4.0951118 18.086308 0.67913449 1.5489215e-38
-4.0823202 18.086716 0.67862022 1.558141e-38
-4.0695286 18.087122 0.67810607 1.5673606e-38
-4.0567374 18.08753 0.67759216 1.5489215e-38
-4.0439458 18.087938 0.67707789 1.5120432e-38
-4.0311542 18.088346 0.67656362 1.5212631e-38
-4.0183625 18.088755 0.67604947 1.5581413e-38
-4.0055714 18.089163 0.67553538 1.5673609e-38
-3.9927797 18.089569 0.67502111 1.5397022e-38
-3.9799883 18.089977 0.67450696 1.5304828e-38
-3.9671967 18.090385 0.67399281 1.5304828e-38
-3.9544053 18.090792 0.67347854 1.5397023e-38
-3.9416137 18.0912 0.67296463 1.5397023e-38
-3.9288223 18.091608 0.67245036 1.5489218e-38
-3.9160309 18.092016 0.67193627 1.5489218e-38
-3.9032393 18.092424 0.671422 1.5581413e-38
-3.8904479 18.092831 0.67090786 1.5581413e-38
-3.8776562 18.093239 0.67039376 1.558141e-38
-3.8648648 18.093647 0.66987944 1.5673606e-38
-3.8520732 18.094055 0.66936535 1.5673606e-38
-3.8392818 18.094461 0.66885114 1.5673606e-38
-3.8264902 18.09487 0.66833705 1.5581766e-38
-3.8136988 18.095278 0.6678229 1.5673962e-38
-3.8009071 18.095686 0.66730875 1.5766158e-38
-3.7881157 18.096092 0.6667946 1.5950193e-38
-3.7753243 18.0965 0.66628033 1.5858e-38
-3.7625327 18.096909 0.66576624 1.5858e-38
-3.7497413 18.097317 0.66525209 1.5858e-38
-3.7369497 18.097723 0.66473782 1.5765804e-38
-3.7241583 18.098131 0.66422367 1.5858e-38
-3.715909 17.965797 0.67974848 1.5858e-38
-3.7033679 17.966198 0.6792444 1.5950196e-38
-3.6908269 17.966597 0.67874032 1.6042391e-38
-3.6782858 17.966997 0.67823625 1.5858e-38
-3.6657448 17.967396 0.67773217 1.5858e-38
-3.6532037 17.967796 0.67722809 1.5858e-38
-3.6406629 17.968195 0.67672408 1.5950196e-38
-3.6281219 17.968596 0.67621976 1.5950196e-38
-3.6155808 17.968996 0.67571568 1.6042391e-38
-3.6030397 17.969395 0.67521161 1.6042391e-38
-3.5904989 17.969795 0.67470753 1.6042391e-38
-3.5779579 17.970194 0.67420346 1.5950197e-38
-3.5654168 17.970594 0.67369944 1.6042393e-38
-3.5528758 17.970995 0.67319536 1.6042393e-38
-3.5403347 17.971394 0.67269117 1.6134588e-38
-3.5277936 17.971794 0.67218697 1.6134587e-38
-3.5152528 17.972193 0.67168295 1.6134587e-38
-3.5027118 17.972593 0.67117888 1.6134587e-38
-3.4901707 17.972994 0.6706748 1.6134587e-38
-3.4776297 17.973392 0.67017072 1.6134587e-38
-3.4650888 17.973793 0.66966671 1.6134587e-38
-3.4525478 17.974194 0.66916263 1.6042391e-38
-3.4400067 17.974592 0.66865855 1.5950196e-38
-3.4274657 17.974993 0.66815424 1.5950196e-38
-3.4149246 17.975391 0.66765016 1.5950196e-38
-3.4023836 17.975792 0.66714615 1.6042391e-38
-3.3898427 17.976191 0.66664207 1.6042391e-38
-3.3773017 17.976591 0.66613799 1.6133868e-38
-3.3532047 18.109955 0.64931291 1.6133868e-38
-3.3404133 18.110363 0.64879876 1.6133868e-38
-3.3276219 18.110771 0.64828461 1.6133868e-38
-3.3148303 18.111179 0.64777046 1.6226064e-38
-3.3020389 18.111588 0.64725637 1.6226064e-38
-3.2892473 18.111994 0.64674211 1.622642e-38
-3.2764559 18.112402 0.64622796 1.622642e-38
-3.2636645 18.11281 0.64571381 1.6042028e-38
-3.2508729 18.113218 0.64519966 1.6042028e-38
-3.2518914 17.980587 0.66109705 1.6042028e-38
-3.2393506 17.980988 0.66059291 1.6134224e-38
-3.2268095 17.981388 0.66008872 1.6134224e-38
-3.2142684 17.981787 0.65958464 1.6134224e-38
-3.2017274 17.982187 0.65908062 1.6134224e-38
-3.1891863 17.982588 0.65857655 1.622642e-38
-3.1766455 17.982986 0.65807247 1.5857634e-38
-3.1641045 17.983387 0.65756828 1.5765439e-38
-3.1515632 17.983786 0.65706432 1.5765441e-38
-3.1390224 17.984186 0.65656006 1.5765441e-38
-3.1264813 17.984585 0.65605599 1.5765086e-38
-3.1293485 17.861162 0.67092001 1.567289e-38
-3.1170404 17.861553 0.67042518 1.5672891e-38
-3.1200275 17.742624 0.68475574 1.5672891e-38
-3.107944 17.74301 0.68427008 1.5672891e-38
-3.0958602 17.743395 0.68378443 1.567289e-38
-3.083777 17.74378 0.68329877 1.5765441e-38
-3.0716934 17.744165 0.68281293 1.5765436e-38
-3.0596097 17.744551 0.68232727 1.5949105e-38
-5.4470906 17.91119 0.73677957 5.6311739e-39
-5.4345493 17.911589 0.73627549 5.7222794e-39
-5.422008 17.911989 0.7357713 5.7204703e-39
-5.4094672 17.912388 0.7352671 5.7175864e-39
-5.3969264 17.912788 0.73476309 5.6235845e-39
-5.3576131 17.790699 0.74816477 5.3459074e-39
-5.345305 17.79109 0.74766994 6.3600425e-39
-5.3329973 17.791483 0.74717534 9.310283e-39
-5.3206892 17.791876 0.74668044 1.0508823e-38
-5.3342214 17.914787 0.73224276 8.847884e-39
-5.3216801 17.915186 0.73173851 7.6497079e-39
-5.3364191 18.047325 0.71622378 7.5582354e-39
-5.3236275 18.047733 0.71570951 6.8221095e-39
-5.3108363 18.048141 0.71519536 8.3912232e-39
-5.2980447 18.048548 0.71468127 1.1250011e-38
-5.258975 17.917185 0.72921813 1.3370524e-38
-5.2464342 17.917585 0.72871405 1.401518e-38
-5.2338929 17.917986 0.72820985 1.4290686e-38
-5.2213521 17.918385 0.72770578 1.4197764e-38
-5.2088108 17.918785 0.72720158 1.4104841e-38
-5.19627 17.919184 0.7266975 1.4473977e-38
-5.1837292 17.919584 0.72619349 1.4473624e-38
-5.1711879 17.919983 0.72568929 1.4290311e-38
-5.1586471 17.920383 0.72518533 1.4290311e-38
-5.1461058 17.920784 0.72468114 1.4290311e-38
-5.1335649 17.921183 0.72417694 1.4289955e-38
-5.1210237 17.921583 0.72367299 1.4382151e-38
-5.1084828 17.921982 0.72316885 1.4382151e-38
-5.095942 17.922382 0.72266477 1.4382151e-38
-5.0834007 17.922781 0.7221607 1.4382151e-38
-5.0708599 17.923182 0.72165668 1.4289955e-38
-5.0583191 17.923582 0.72115254 1.4289957e-38
-5.0457778 17.923981 0.72064841 1.4197761e-38
-5.033237 17.924381 0.72014433 1.4197761e-38
-5.0206957 17.92478 0.71964014 1.4289957e-38
-5.0081549 17.92518 0.71913606 1.4382153e-38
-4.9956136 17.925579 0.71863198 1.4474347e-38
-4.9830728 17.92598 0.71812797 1.4382507e-38
-4.9910488 18.058334 0.70234138 1.4382504e-38
-4.9782572 18.058743 0.70182717 1.4290309e-38
-4.9654655 18.059149 0.7013129 1.4290309e-38
-4.9725461 18.192245 0.68540365 1.4290311e-38
-4.9595027 18.192661 0.68487924 1.4290311e-38
-4.9464593 18.193077 0.68435508 1.4382151e-38
-4.9334159 18.193493 0.68383068 1.4382151e-38
-4.920373 18.193909 0.68330657 1.4197761e-38
-4.9266896 18.332386 0.66671586 1.4197761e-38
-4.8942862 18.19474 0.68225789 1.428996e-38
-4.8812428 18.195156 0.68173361 1.4382155e-38
-4.8503423 18.062819 0.69668549 1.4381799e-38
-4.8375506 18.063227 0.69617122 1.4381799e-38
-4.824759 18.063635 0.69565707 1.4381799e-38
-4.8119678 18.064043 0.69514298 1.428996e-38
-4.7991762 18.064449 0.69462895 1.4289957e-38
-4.7863846 18.064857 0.69411469 1.4289955e-38
-4.7735929 18.065266 0.69360054 1.4289955e-38
-4.7447934 17.933575 0.7085501 1.4289955e-38
-4.7480102 18.06608 0.69257212 1.4289955e-38
-4.7352185 18.066488 0.69205803 1.4289955e-38
-4.7224269 18.066896 0.69154388 1.4289955e-38
-4.7096357 18.067305 0.69102961 1.4289955e-38
-4.6968441 18.067711 0.69051546 1.4382151e-38
-4.6840525 18.068119 0.69000131 1.4474347e-38
-4.6855927 18.201393 0.67386937 1.4474347e-38
-4.6725492 18.201809 0.67334491 1.4566542e-38
-4.645678 18.069342 0.68845892 1.4566542e-38
-4.6328864 18.06975 0.68794477 1.4566542e-38
-4.6200953 18.070158 0.6874305 1.4566542e-38
-4.6073036 18.070566 0.68691635 1.4566542e-38
-4.594512 18.070972 0.6864022 1.4475067e-38
-4.5692191 17.939171 0.70149273 1.4475067e-38
-4.5566783 17.939571 0.70098877 1.4475067e-38
-4.5441375 17.93997 0.70048457 1.4567263e-38
-4.5433459 18.072603 0.68434566 1.4567263e-38
-4.5305548 18.073011 0.68383139 1.4567263e-38
-4.5177631 18.07342 0.6833173 1.4475067e-38
-4.5049715 18.073828 0.68280309 1.4475067e-38
-4.4921803 18.074234 0.68228889 1.4382871e-38
-4.4793887 18.074642 0.68177474 1.4659458e-38
-4.4768991 18.208046 0.66548073 1.4936044e-38
-4.4538054 18.075459 0.68074632 1.4936044e-38
-4.4410143 18.075867 0.68023217 1.4751653e-38
-4.4282227 18.076273 0.67971814 1.4659457e-38
-4.415431 18.076681 0.67920393 1.475165e-38
-4.4026399 18.077089 0.67868978 1.4936041e-38
-4.3898482 18.077496 0.67817563 1.5027521e-38
-4.3770566 18.077904 0.67766148 1.5027521e-38
-4.3560224 17.945967 0.69292313 1.5027521e-38
-4.3595095 18.211786 0.66076213 1.4935325e-38
-4.3464661 18.212202 0.66023773 1.4935325e-38
-4.3334227 18.212618 0.65971345 1.4935325e-38
-4.3130994 18.079945 0.67509067 1.4843129e-38
-4.3003078 18.080351 0.6745764 1.4843129e-38
-4.2875161 18.080759 0.67406225 1.5119716e-38
-4.2747245 18.081165 0.6735481 1.4935325e-38
-4.2619333 18.081573 0.67303401 1.4935325e-38
-4.2491417 18.081982 0.67251974 1.5119716e-38
-4.2363501 18.08239 0.67200559 1.5211912e-38
-4.2235589 18.082798 0.67149144 1.5027521e-38
-4.2107673 18.083204 0.67097729 1.5119716e-38
-4.1979756 18.083612 0.67046309 1.5396303e-38
-4.185184 18.084021 0.669949 1.558105e-38
-4.1723928 18.084429 0.66943473 1.5397019e-38
-4.1596012 18.084837 0.66892064 1.5212628e-38
-4.1468096 18.085243 0.66840649 1.5028237e-38
-4.1340184 18.085651 0.66789222 1.5028237e-38
-4.1212268 18.08606 0.66737819 1.5120432e-38
-4.1084352 18.086468 0.66686398 1.5304823e-38
-4.0956435 18.086874 0.66634983 1.5397019e-38
-4.0828524 18.087282 0.66583556 1.5120432e-38
-4.0700607 18.08769 0.66532141 1.5489215e-38
-4.0572691 18.088097 0.66480738 1.558141e-38
-4.0444779 18.088505 0.66429317 1.5397019e-38
-4.0316863 18.088913 0.66377896 1.5304826e-38
-4.0188947 18.089321 0.66326487 1.5397022e-38
-4.006103 18.089729 0.66275072 1.5304826e-38
-3.9933116 18.090136 0.66223657 1.5028239e-38
-3.9805202 18.090544 0.6617223 1.5120436e-38
-3.9677286 18.090952 0.66120803 1.5212632e-38
-3.9549372 18.09136 0.66069394 1.5212632e-38
-3.9421458 18.091766 0.66017991 1.5304828e-38
-3.9293542 18.092175 0.65966576 1.5304826e-38
-3.9165628 18.092583 0.65915149 1.5397022e-38
-3.9037712 18.092991 0.65863734 1.5397022e-38
-3.8909798 18.093397 0.6581232 1.5397022e-38
-3.8781881 18.093805 0.65760905 1.5397019e-38
-3.8653967 18.094213 0.65709484 1.5489215e-38
-3.8526053 18.094622 0.65658069 1.558141e-38
-3.8398137 18.09503 0.65606642 1.558141e-38
-3.8270223 18.095436 0.65555227 1.5489571e-38
-3.8142307 18.095844 0.65503824 1.5489571e-38
-3.8042176 17.963556 0.67074287 1.5673962e-38
-3.7886477 18.096661 0.65400988 1.5858353e-38
-3.7791355 17.964355 0.66973472 1.5858e-38
-3.7665946 17.964754 0.6692307 1.5858e-38
-3.7540536 17.965155 0.66872662 1.5765804e-38
-3.7415125 17.965553 0.66822255 1.5765804e-38
-3.7289715 17.965954 0.66771835 1.5858e-38
-3.7164304 17.966354 0.66721416 1.5858e-38
-3.7038894 17.966753 0.66671008 1.5950196e-38
-3.6913486 17.967154 0.66620606 1.5950196e-38
-3.6788075 17.967552 0.66570199 1.5765804e-38
-3.6662664 17.967953 0.66519791 1.5765804e-38
-3.6537254 17.968351 0.66469383 1.5858e-38
-3.6411843 17.968752 0.66418976 1.5950196e-38
-3.6286435 17.969152 0.66368544 1.5950196e-38
-3.6161025 17.969551 0.66318142 1.6042391e-38
-3.6035614 17.969952 0.66267735 1.6042391e-38
-3.5910203 17.97035 0.66217327 1.6134587e-38
-3.5784793 17.970751 0.66166908 1.5950197e-38
-3.5659382 17.971149 0.66116512 1.6042393e-38
-3.5533972 17.97155 0.66066104 1.6042393e-38
-3.5408564 17.971951 0.66015691 1.6134588e-38
-3.5283153 17.972349 0.65965277 1.6134587e-38
-3.5157743 17.97275 0.65914863 1.6134587e-38
-3.5032332 17.973148 0.65864456 1.6134587e-38
-3.4906924 17.973549 0.65814048 1.6134587e-38
-3.4781513 17.973949 0.65763646 1.6042391e-38
-3.4656103 17.974348 0.65713239 1.6042391e-38
-3.4530692 17.974749 0.65662819 1.5950196e-38
-3.4405282 17.975147 0.65612423 1.5858e-38
-3.4279871 17.975548 0.65561992 1.5858e-38
-3.4154463 17.975948 0.6551159 1.5858e-38
-3.4029052 17.976347 0.65461183 1.5858e-38
-3.3903642 17.976748 0.65410775 1.5950196e-38
-3.3778231 17.977146 0.65360355 1.6133868e-38
-3.3537369 18.110523 0.63652813 1.6133868e-38
-3.3409452 18.110929 0.63601398 1.6133868e-38
-3.3281538 18.111338 0.63549995 1.6133868e-38
-3.3153622 18.111746 0.6349858 1.6226064e-38
-3.3025708 18.112154 0.6344716 1.6226064e-38
-3.2897794 18.112562 0.63395745 1.6226064e-38
-3.2769878 18.112968 0.6334433 1.622642e-38
-3.2641962 18.113377 0.63292915 1.5949833e-38
-3.2514048 18.113785 0.63241494 1.5949833e-38
-3.252413 17.981144 0.64856267 1.6042028e-38
-3.239872 17.981543 0.64805871 1.6042028e-38
-3.2273309 17.981943 0.6475544 1.6134224e-38
-3.2147899 17.982344 0.64705038 1.622642e-38
-3.2022491 17.982742 0.6465463 1.622642e-38
-3.1897078 17.983143 0.64604223 1.622642e-38
-3.1771669 17.983541 0.64553803 1.5765439e-38
-3.1646259 17.983942 0.64503413 1.5765439e-38
-3.1520848 17.984343 0.64452994 1.5765441e-38
-3.139544 17.984741 0.64402574 1.5765441e-38
-3.127003 17.985142 0.64352173 1.567289e-38
-3.1298604 17.861706 0.65861845 1.567289e-38
-3.1175525 17.862099 0.65812355 1.5672891e-38
-3.1205299 17.74316 0.67267883 1.5672891e-38
-3.1084466 17.743546 0.67219299 1.5580694e-38
-3.0963631 17.743931 0.67170739 1.5673246e-38
-3.0842795 17.744314 0.67122161 1.5765441e-38
-3.0721958 17.744701 0.67073584 1.5765439e-38
-3.0601125 17.745087 0.6702503 1.5949107e-38
-5.4476118 17.911745 0.72424507 5.5389783e-39
-5.4350705 17.912146 0.72374105 5.4460526e-39
-5.4225297 17.912544 0.72323686 4.8921515e-39
-5.3827415 17.790459 0.73685271 5.3502458e-39
-5.3704329 17.790852 0.73635787 5.8094177e-39
-5.3581252 17.791243 0.73586333 5.8998042e-39
-5.3458171 17.791636 0.73536849 6.6366322e-39
-5.333509 17.792028 0.73487389 9.310283e-39
-5.3212008 17.792421 0.73437911 1.0508826e-38
-5.3347425 17.915342 0.71970826 8.847884e-39
-5.3222017 17.915743 0.71920413 7.4653167e-39
-5.3369513 18.047892 0.703439 7.5582354e-39
-5.3241596 18.0483 0.70292491 7.0068567e-39
-5.311368 18.048708 0.70241076 8.6678101e-39
-5.2985764 18.049116 0.70189649 1.0696837e-38
-5.2594967 17.917742 0.71668369 1.3001742e-38
-5.2469554 17.91814 0.71617949 1.4107376e-38
-5.2344146 17.918541 0.71567535 1.4290686e-38
-5.2218738 17.918941 0.71517128 1.428996e-38
-5.2093325 17.91934 0.7146672 1.4473624e-38
-5.1967916 17.919741 0.71416312 1.4473977e-38
-5.1842504 17.920139 0.71365905 1.4473624e-38
-5.1717095 17.92054 0.71315485 1.4290311e-38
-5.1591682 17.920938 0.71265095 1.4290311e-38
-5.1466274 17.921339 0.71214676 1.4290311e-38
-5.1340861 17.921738 0.7116428 1.4290311e-38
-5.1215453 17.922138 0.71113861 1.4290311e-38
-5.1090045 17.922539 0.71063441 1.4289955e-38
-5.0964632 17.922937 0.71013033 1.4289955e-38
-5.0839224 17.923338 0.70962626 1.4289957e-38
-5.0713816 17.923737 0.70912224 1.4289957e-38
-5.0588403 17.924137 0.70861816 1.4382153e-38
-5.0462995 17.924536 0.70811397 1.4382153e-38
-5.0337582 17.924936 0.70760977 1.4382155e-38
-5.0212173 17.925337 0.70710576 1.4382155e-38
-5.0086761 17.925735 0.70660162 1.4474351e-38
-4.9961352 17.926136 0.70609748 1.4474348e-38
-4.9835944 17.926535 0.70559353 1.4290311e-38
-4.9915805 18.058901 0.68955666 1.4198113e-38
-4.9787889 18.059309 0.68904251 1.4198113e-38
-4.9659977 18.059715 0.68852836 1.4198113e-38
-4.9532061 18.060123 0.68801415 1.4290311e-38
-4.9404144 18.060532 0.68749982 1.4382507e-38
-4.9276228 18.06094 0.68698579 1.4382151e-38
-4.9339585 18.194071 0.67079413 1.4474347e-38
-4.9209151 18.194487 0.67026991 1.4382153e-38
-4.9078717 18.194904 0.66974562 1.4382153e-38
-4.8948288 18.19532 0.66922152 1.4382155e-38
-4.8817849 18.195734 0.66869694 1.4382155e-38
-4.8508739 18.063385 0.68390071 1.4381799e-38
-4.8380828 18.063793 0.68338662 1.4381799e-38
-4.8252912 18.064201 0.68287247 1.4381799e-38
-4.8124995 18.06461 0.68235821 1.4382155e-38
-4.7997079 18.065016 0.68184417 1.4474348e-38
-4.7869167 18.065424 0.68132991 1.4474347e-38
-4.7741251 18.065832 0.68081594 1.4474347e-38
-4.7453151 17.93413 0.69601572 1.4566542e-38
-4.7327743 17.93453 0.69551152 1.4566542e-38
-4.7357507 18.067055 0.67927337 1.4566542e-38
-4.722959 18.067463 0.6787591 1.4566542e-38
-4.7101674 18.067871 0.67824495 1.4566542e-38
-4.6973763 18.068279 0.67773086 1.4566542e-38
-4.6845846 18.068686 0.67721659 1.4566542e-38
-4.6861348 18.201971 0.66083282 1.4566542e-38
-4.6590018 18.069502 0.67618841 1.4566542e-38
-4.6462102 18.06991 0.67567426 1.4658738e-38
-4.6334186 18.070316 0.67515999 1.4658738e-38
-4.6206269 18.070724 0.6746459 1.4658738e-38
-4.6078358 18.071133 0.67413169 1.4658738e-38
-4.5822821 17.939327 0.68946254 1.4567263e-38
-4.5697408 17.939728 0.68895835 1.4566907e-38
-4.5572 17.940126 0.68845433 1.4475067e-38
-4.5566697 18.072763 0.67207503 1.4475067e-38
-4.5438781 18.073172 0.67156094 1.4475067e-38
-4.5310864 18.073578 0.67104673 1.4475067e-38
-4.5182953 18.073986 0.67053252 1.4567261e-38
-4.5165715 18.207376 0.65401709 1.4567261e-38
-4.5035286 18.20779 0.65349281 1.4475066e-38
-4.4904852 18.208206 0.65296841 1.4475066e-38
-4.4774418 18.208622 0.65244412 1.4475066e-38
-4.4643984 18.209038 0.65191984 1.4567261e-38
-4.451355 18.209454 0.6513955 1.4567261e-38
-4.4287548 18.076839 0.66693348 1.4567261e-38
-4.4159632 18.077248 0.66641927 1.4567261e-38
-4.4031715 18.077656 0.665905 1.4567261e-38
-4.3903799 18.078064 0.66539091 1.4750934e-38
-4.3690848 17.946123 0.68089283 1.4750934e-38
-4.3565435 17.946524 0.68038875 1.4843129e-38
-4.3520055 18.079287 0.66384834 1.4843129e-38
-4.3470082 18.21278 0.64720118 1.4935325e-38
-4.3339648 18.213196 0.6466769 1.5027521e-38
-4.3136311 18.080509 0.66230601 1.5027521e-38
-4.3008394 18.080917 0.66179174 1.5119716e-38
-4.2880483 18.081326 0.66127765 1.4935325e-38
-4.2752566 18.081734 0.66076338 1.4935325e-38
-4.262465 18.08214 0.66024923 1.5027521e-38
-4.2496738 18.082548 0.65973508 1.5027521e-38
-4.2368822 18.082956 0.65922087 1.5119716e-38
-4.2240906 18.083364 0.65870667 1.5119716e-38
-4.2112989 18.083773 0.65819257 1.5211912e-38
-4.1985078 18.084179 0.65767837 1.5211912e-38
-4.1857162 18.084587 0.65716428 1.5212631e-38
-4.1729245 18.084995 0.65665013 1.5212631e-38
-4.1601334 18.085403 0.65613598 1.5120435e-38
-4.1473417 18.085812 0.65562177 1.5120435e-38
-4.1345501 18.086218 0.65510756 1.5120435e-38
-4.1217585 18.086626 0.65459347 1.5120435e-38
-4.1089673 18.087034 0.6540792 1.5212631e-38
-4.0961757 18.087442 0.65356505 1.5212631e-38
-4.083384 18.087849 0.6530509 1.5304826e-38
-4.0705929 18.088257 0.65253663 1.5304826e-38
-4.0578012 18.088665 0.65202266 1.5304826e-38
-4.0450096 18.089071 0.65150851 1.5304826e-38
-4.032218 18.089479 0.65099436 1.5304823e-38
-4.0194268 18.089888 0.65048009 1.5304823e-38
-4.0066352 18.090296 0.64996594 1.5304823e-38
-3.9938436 18.090704 0.64945179 1.5304826e-38
-3.9810522 18.09111 0.64893752 1.5304828e-38
-3.9682605 18.091518 0.64842337 1.5212632e-38
-3.9554691 18.091927 0.64790928 1.5212632e-38
-3.9426777 18.092335 0.64739525 1.5212632e-38
-3.9298861 18.092741 0.64688098 1.5397022e-38
-3.9170947 18.093149 0.64636683 1.5489218e-38
-3.9043031 18.093557 0.64585257 1.5397022e-38
-3.8915117 18.093966 0.64533848 1.5304826e-38
-3.8787203 18.094372 0.64482433 1.5489215e-38
-3.8659286 18.09478 0.64431018 1.5489215e-38
-3.8549032 17.962513 0.66022485 1.5489215e-38
-3.8423622 17.962912 0.65972084 1.5489215e-38
-3.8298211 17.963312 0.65921658 1.5581766e-38
-3.8147626 18.096411 0.64225358 1.5673962e-38
-3.8019712 18.096819 0.64173931 1.5858353e-38
-3.7891796 18.097227 0.6412251 1.5950549e-38
-3.7796571 17.964911 0.65720022 1.5858e-38
-3.7671161 17.965311 0.65669626 1.5858e-38
-3.7508051 18.09845 0.63968253 1.5765804e-38
-3.742034 17.96611 0.65568805 1.5765804e-38
-3.7294931 17.966511 0.65518397 1.5765804e-38
-3.7169521 17.966909 0.65467978 1.5765804e-38
-3.704411 17.96731 0.6541757 1.5858e-38
-3.69187 17.967709 0.65367162 1.5858e-38
-3.6793289 17.968109 0.65316755 1.5765804e-38
-3.6667879 17.968508 0.65266347 1.5765804e-38
-3.654247 17.968908 0.65215933 1.5858e-38
-3.641706 17.969307 0.65165538 1.5858e-38
-3.6291649 17.969707 0.65115106 1.5858e-38
-3.6166239 17.970106 0.65064698 1.5858e-38
-3.6040828 17.970507 0.65014291 1.5765804e-38
-3.591542 17.970907 0.64963883 1.5765804e-38
-3.5790009 17.971306 0.6491347 1.6134587e-38
-3.5664599 17.971706 0.64863074 1.6134587e-38
-3.5539188 17.972105 0.64812666 1.6042391e-38
-3.5413778 17.972506 0.64762247 1.5950196e-38
-3.5288367 17.972906 0.64711833 1.6042391e-38
-3.5162957 17.973305 0.64661419 1.6134587e-38
-3.5037549 17.973705 0.64611018 1.6226783e-38
-3.4912138 17.974104 0.6456061 1.6318978e-38
-3.4786727 17.974504 0.64510202 1.6042391e-38
-3.4661317 17.974905 0.64459801 1.6042391e-38
-3.4535909 17.975304 0.64409381 1.5950196e-38
-3.4410498 17.975704 0.64358985 1.5950196e-38
-3.4285088 17.976103 0.64308554 1.5858001e-38
-3.4159677 17.976503 0.64258146 1.5950197e-38
-3.4034266 17.976902 0.64207727 1.5950197e-38
-3.3908856 17.977303 0.64157331 1.5950197e-38
-3.3783448 17.977703 0.64106917 1.6041674e-38
-3.3542688 18.11109 0.62374347 1.6041674e-38
-3.3414772 18.111498 0.62322938 1.6041674e-38
-3.3286858 18.111904 0.62271535 1.6041674e-38
-3.3158944 18.112312 0.62220109 1.6041674e-38
-3.303103 18.11272 0.62168694 1.6041672e-38
-3.2903113 18.113129 0.62117267 1.6133868e-38
-3.2775197 18.113535 0.62065858 1.6133868e-38
-3.2647283 18.113943 0.62014443 1.5949833e-38
-3.2519367 18.114351 0.61963022 1.5949833e-38
-3.2529345 17.981699 0.63602829 1.5949833e-38
-3.2263539 18.115168 0.61860186 1.6042028e-38
-3.2278523 17.982498 0.63502002 1.6042028e-38
-3.2153115 17.982899 0.63451594 1.6134224e-38
-3.2027705 17.983299 0.63401192 1.6134221e-38
-3.1902294 17.983698 0.63350785 1.6134221e-38
-3.1776886 17.984098 0.63300365 1.594983e-38
-3.1651475 17.984497 0.63249969 1.594983e-38
-3.1526062 17.984898 0.6319955 1.5949833e-38
-3.1400657 17.985298 0.63149148 1.5857637e-38
-3.1275246 17.985697 0.63098729 1.5857281e-38
-3.1303723 17.862253 0.64631695 1.5765086e-38
-3.1180642 17.862644 0.64582211 1.5765086e-38
-3.1210325 17.743696 0.66060162 1.5765086e-38
-3.1089492 17.744081 0.66011584 1.5580694e-38
-3.0968654 17.744467 0.65963012 1.558105e-38
-3.0847819 17.74485 0.65914446 1.558105e-38
-3.0726984 17.745237 0.65865868 1.5581047e-38
-3.0606151 17.745621 0.65817302 1.5764716e-38
-5.321713 17.792967 0.72207749 1.0785413e-38
-5.3352642 17.915899 0.70717394 8.847884e-39
-5.3227234 17.916298 0.70666975 7.4653167e-39
-5.3101821 17.916698 0.70616567 7.4660397e-39
-5.3246913 18.048866 0.69014013 7.0068567e-39
-5.2851 17.917498 0.7051574 8.6678101e-39
-5.2725592 17.917896 0.70465344 1.0696837e-38
-5.2600179 17.918297 0.70414931 1.3001742e-38
-5.2474771 17.918697 0.70364535 1.4107373e-38
-5.2349362 17.919096 0.70314115 1.4290686e-38
-5.2223954 17.919497 0.70263696 1.4289957e-38
-5.2098541 17.919895 0.702133 1.4473624e-38
-5.1973128 17.920296 0.70162886 1.4566172e-38
-5.184772 17.920696 0.70112479 1.4565817e-38
-5.1722312 17.921095 0.70062071 1.4382507e-38
-5.1596899 17.921495 0.70011652 1.4382507e-38
-5.1471491 17.921894 0.69961244 1.4382507e-38
-5.1346078 17.922295 0.69910836 1.4382507e-38
-5.122067 17.922693 0.69860423 1.4382507e-38
-5.1095262 17.923094 0.69810015 1.4382151e-38
-5.0969849 17.923494 0.69759607 1.4382151e-38
-5.084444 17.923893 0.69709188 1.4289957e-38
-5.0719028 17.924294 0.69658792 1.4289957e-38
-5.0593619 17.924692 0.69608378 1.4382153e-38
-5.0468211 17.925093 0.69557983 1.4382153e-38
-5.0342798 17.925491 0.69507551 1.4382155e-38
-5.021739 17.925892 0.69457144 1.4382155e-38
-5.0091977 17.926291 0.69406736 1.4474351e-38
-4.9966569 17.926691 0.69356328 1.4474348e-38
-5.0049038 18.059059 0.67728615 1.4290311e-38
-4.9921126 18.059467 0.67677188 1.4290309e-38
-4.979321 18.059875 0.67625773 1.4198113e-38
-4.9665294 18.060284 0.67574358 1.4198116e-38
-4.9537382 18.06069 0.67522931 1.4290311e-38
-4.9409466 18.061098 0.67471522 1.4382507e-38
-4.9281549 18.061506 0.67420101 1.4382151e-38
-4.9153633 18.061914 0.67368704 1.4474347e-38
-4.9025722 18.062321 0.67317277 1.4382153e-38
-4.8897805 18.062731 0.67265856 1.4382153e-38
-4.8769889 18.063137 0.67214447 1.4382155e-38
-4.8641973 18.063545 0.6716302 1.4382155e-38
-4.8514061 18.063953 0.67111599 1.4382155e-38
-4.8386145 18.06436 0.67060196 1.4381799e-38
-4.8258233 18.064768 0.6700877 1.4381799e-38
-4.8130317 18.065176 0.66957355 1.4382155e-38
-4.80024 18.065584 0.66905951 1.4382153e-38
-4.7874489 18.06599 0.66854542 1.4474347e-38
-4.7746572 18.066399 0.66803116 1.4474347e-38
-4.7458367 17.934687 0.6834814 1.4474347e-38
-4.7332954 17.935085 0.68297726 1.4474347e-38
-4.7207546 17.935486 0.68247318 1.4566542e-38
-4.7234912 18.068029 0.66597444 1.4566542e-38
-4.7106996 18.068438 0.66546035 1.4566542e-38
-4.6979079 18.068846 0.66494608 1.4474347e-38
-4.6851163 18.069252 0.66443193 1.4474347e-38
-4.6723251 18.06966 0.66391778 1.4474347e-38
-4.6595335 18.070068 0.66340363 1.4474347e-38
-4.6467419 18.070477 0.66288954 1.4566542e-38
