# .PCD v0.7 - Point Cloud Data file format
VERSION 0.7
FIELDS x y z rgb
SIZE 4 4 4 4
TYPE F F F F
COUNT 1 1 1 1
WIDTH 1073
HEIGHT 1
VIEWPOINT 0 0 0 1 0 0 0
POINTS 1073
DATA ascii
-5.3714156 17.791216 1.3793433 9.4072053e-39
-5.3708076 17.793402 1.3792517 1.0974895e-38
-5.3669209 17.792612 1.3795047 1.2266713e-38
-5.3663154 17.794792 1.3794136 1.3557452e-38
-5.3623405 17.793894 1.3796773 1.4755994e-38
-5.3583927 17.793001 1.3799392 1.5860899e-38
-5.3577905 17.795168 1.3798488 1.613712e-38
-5.3538713 17.794273 1.3801092 1.7150193e-38
-5.3532715 17.796432 1.3800189 1.7887397e-38
-5.349381 17.795538 1.380278 1.8440571e-38
-5.4315338 17.771038 1.374909 1.1103146e-39
-5.4308991 17.773321 1.3748137 3.253815e-42
-5.4302645 17.775604 1.3747181 1.8764507e-40
-5.4253597 17.774298 1.3750643 1.2017942e-39
-5.4247274 17.776571 1.3749694 2.0322681e-39
-5.4207597 17.776024 1.3752202 5.7204479e-39
-5.4166894 17.775372 1.3754828 7.1030138e-39
-5.4160619 17.777632 1.3753884 8.9458418e-39
-5.4112649 17.776331 1.3757284 9.7741577e-39
-5.4072556 17.775682 1.3759873 9.9563867e-39
-5.4032722 17.77504 1.3762445 1.0139336e-38
-5.3984537 17.773657 1.3765904 1.0231169e-38
-5.3978353 17.775883 1.3764973 1.0414841e-38
-5.3972163 17.778109 1.3764043 1.0507756e-38
-5.3931727 17.777355 1.3766712 1.0416279e-38
-5.3925562 17.779575 1.3765785 1.0324083e-38
-5.3886628 17.778925 1.3768311 9.956021e-39
-5.3880477 17.781137 1.3767387 1.0232611e-38
-5.3874331 17.783348 1.3766462 1.0140415e-38
-5.3868184 17.785561 1.3765538 1.0231172e-38
-5.3828363 17.784786 1.3768184 9.9545847e-39
-5.3822236 17.786991 1.3767263 9.5854462e-39
-5.3774376 17.785475 1.3770778 9.1251897e-39
-5.3768277 17.787668 1.3769861 8.6645801e-39
-5.3762174 17.789864 1.3768945 8.1132126e-39
-5.3721824 17.788977 1.3771684 8.6678339e-39
-5.3715739 17.791164 1.377077 9.5915937e-39
-5.370966 17.793352 1.3769857 1.106709e-38
-5.3670788 17.792561 1.3772459 1.2174516e-38
-5.3664732 17.794743 1.3771547 1.3373059e-38
-5.3624978 17.793844 1.3774261 1.4479407e-38
-5.3585491 17.792952 1.3776957 1.5492117e-38
-5.3579473 17.795116 1.3776053 1.5768338e-38
-5.3540277 17.794224 1.3778734 1.6872888e-38
-5.3534279 17.796383 1.3777829 1.7794122e-38
-5.3528285 17.79854 1.3776928 1.8347296e-38
-5.4316988 17.770985 1.3725439 1.1110377e-39
-5.4344578 17.7761 1.3720909 2.8020504e-40
-5.4304299 17.775551 1.372353 5.5679193e-40
-5.4297953 17.777834 1.3722575 1.6631367e-39
-5.4291606 17.780117 1.3721621 2.4021325e-39
-5.4209237 17.775972 1.3728721 6.0892332e-39
-5.4168534 17.77532 1.3731425 7.1959311e-39
-5.4162254 17.777578 1.3730479 8.7621736e-39
-5.4155974 17.779839 1.3729535 9.5904867e-39
-5.4074183 17.775631 1.3736639 9.8652701e-39
-5.4034343 17.774986 1.3739287 9.9560238e-39
-5.3986149 17.773605 1.3742841 1.0138973e-38
-5.3979964 17.775831 1.3741909 1.0414841e-38
-5.3973775 17.778057 1.3740981 1.0507756e-38
-5.3933334 17.777304 1.3743727 1.0508475e-38
-5.3927169 17.779524 1.3742799 1.0231888e-38
-5.388823 17.778873 1.3745397 9.7716297e-39
-5.3882079 17.781086 1.3744475 1.0324806e-38
-5.3875933 17.783297 1.374355 1.0140415e-38
-5.3869786 17.785509 1.3742625 1.0231172e-38
-5.3829961 17.784737 1.3745348 9.862389e-39
-5.3857493 17.789932 1.3740776 9.5858021e-39
-5.3817706 17.789145 1.3743505 9.1251897e-39
-5.3811579 17.791349 1.3742583 8.6649361e-39
-5.3763766 17.789814 1.3746203 8.1135686e-39
-5.3723407 17.788925 1.3749022 8.2990486e-39
-5.3717327 17.791113 1.3748108 9.2231671e-39
-5.3711243 17.793301 1.3747191 1.0790859e-38
-5.3672371 17.792511 1.3749871 1.208232e-38
-5.366631 17.794691 1.3748959 1.3465255e-38
-5.3626552 17.793793 1.375175 1.4755991e-38
-5.3587065 17.792902 1.3754523 1.5953092e-38
-5.3581042 17.795067 1.3753617 1.6321512e-38
-5.3541846 17.794174 1.3756375 1.6596301e-38
-5.3535843 17.796331 1.3755472 1.7609731e-38
-5.3529844 17.798491 1.375457 1.8346577e-38
-5.4318643 17.770931 1.3701786 1.6642157e-39
-5.4312301 17.773214 1.3700832 1.2018054e-39
-5.4305954 17.775497 1.3699877 1.294001e-39
-5.4299607 17.777781 1.3698924 1.7560554e-39
-5.4250569 17.776466 1.3702581 2.1259113e-39
-5.4210877 17.775919 1.3705239 5.4445882e-39
-5.4204578 17.778185 1.3704294 6.5512875e-39
-5.416389 17.777527 1.3707076 8.3937526e-39
-5.4157615 17.779785 1.3706132 9.4982939e-39
-5.4109654 17.778477 1.3709722 1.0049664e-38
-5.4103403 17.780727 1.3708781 1.0140415e-38
-5.4029751 17.77717 1.3715197 1.0231169e-38
-5.3981576 17.77578 1.3718847 1.041556e-38
-5.3975391 17.778006 1.3717916 1.0692146e-38
-5.3934941 17.777252 1.3720739 1.0600669e-38
-5.3928771 17.779472 1.3719813 1.0324082e-38
-5.3889828 17.778822 1.3722486 9.8638254e-39
-5.3883681 17.781034 1.3721563 1.0232611e-38
-5.3877535 17.783245 1.3720638 1.0140415e-38
-5.3837686 17.78248 1.3723435 1.0323364e-38
-5.3831558 17.784685 1.3722513 1.0046777e-38
-5.3825431 17.786888 1.3721591 9.677995e-39
-5.3777556 17.785372 1.3725297 9.1251869e-39
-5.3771458 17.787567 1.3724378 8.480542e-39
-5.3765354 17.789762 1.3723462 7.9291759e-39
-5.372499 17.788876 1.3726358 7.745872e-39
-5.371891 17.791063 1.3725443 8.6699919e-39
-5.3712831 17.793251 1.3724529 1.0422073e-38
-5.3673949 17.792459 1.3727282 1.1805731e-38
-5.3667889 17.794641 1.3726372 1.3373056e-38
-5.3628125 17.793743 1.372924 1.4848187e-38
-5.3588634 17.79285 1.3732088 1.6229679e-38
-5.3582611 17.795017 1.3731183 1.6690294e-38
-5.3576593 17.797182 1.3730278 1.6872167e-38
-5.3537407 17.796282 1.3733113 1.7793403e-38
-5.3498483 17.795387 1.373593 1.8438773e-38
-5.4360628 17.771414 1.3675369 2.4950624e-39
-5.4354262 17.773705 1.3674411 2.5865377e-39
-5.4347897 17.775995 1.3673453 1.7557037e-39
-5.4307604 17.775444 1.3676225 1.5713124e-39
-5.4301257 17.777727 1.3675271 1.6645814e-39
-5.4252219 17.776413 1.3679024 1.7567715e-39
-5.4245896 17.778687 1.3678074 4.7073861e-39
-5.4206223 17.778133 1.3680812 5.9977578e-39
-5.4165525 17.777473 1.3683672 8.1171685e-39
-5.415925 17.779734 1.3682728 9.3146243e-39
-5.407743 17.775526 1.3690171 1.014222e-38
-5.4071198 17.777769 1.3689233 1.0324809e-38
-5.4031367 17.777119 1.3692038 1.0323727e-38
-5.3983188 17.775728 1.3695784 1.0507756e-38
-5.3977003 17.777954 1.3694853 1.0784341e-38
-5.3936548 17.777201 1.3697754 1.078506e-38
-5.3930378 17.779421 1.3696826 1.0508473e-38
-5.3924217 17.781639 1.3695898 9.9563783e-39
-5.3918047 17.783857 1.3694971 1.0140415e-38
-5.3911881 17.786077 1.3694043 1.0140415e-38
-5.3872991 17.785406 1.3696802 1.041556e-38
-5.3833151 17.784634 1.3699677 1.0231169e-38
-5.3827024 17.786839 1.3698756 9.8623862e-39
-5.3820901 17.789042 1.3697833 9.1251841e-39
-5.3773046 17.787516 1.3701638 8.3883464e-39
-5.3766947 17.789711 1.370072 7.6525862e-39
-5.3726578 17.788824 1.3703696 8.0228149e-39
-5.3720493 17.791012 1.3702782 8.9465788e-39
-5.3714414 17.7932 1.3701868 1.0422073e-38
-5.3708334 17.795387 1.3700953 1.162134e-38
-5.3669467 17.79459 1.3703784 1.2912078e-38
-5.3629704 17.793694 1.3706728 1.4295013e-38
-5.3590202 17.792801 1.3709652 1.5399921e-38
-5.358418 17.794966 1.3708748 1.5860178e-38
-5.3578162 17.797132 1.3707842 1.7056559e-38
-5.3538971 17.796232 1.3710753 1.7977795e-38
-5.3500042 17.795338 1.3713645 1.8623164e-38
-5.4362288 17.77136 1.365164 3.6939727e-39
-5.4355922 17.773651 1.3650683 3.14008e-39
-5.4349556 17.775942 1.3649725 3.0471641e-39
-5.4309258 17.775393 1.3652574 1.6642297e-39
-5.4302917 17.777676 1.365162 9.2666046e-40
-5.4253864 17.776361 1.3655468 2.0344373e-39
-5.4247546 17.778635 1.3654518 4.5240739e-39
-5.4207864 17.77808 1.3657329 6.8282373e-39
-5.4167161 17.777422 1.3660269 8.4866699e-39
-5.4160886 17.77968 1.3659323 9.4990155e-39
-5.4112916 17.778372 1.3663102 9.9578301e-39
-5.4072824 17.777718 1.3665999 1.0140778e-38
-5.4032989 17.777067 1.3668879 1.0508119e-38
-5.3984799 17.775677 1.367272 1.0876538e-38
-5.3978615 17.777903 1.3671789 1.0692146e-38
-5.3972425 17.780128 1.3670857 1.0139691e-38
-5.393199 17.779369 1.367384 1.0047495e-38
-5.3925824 17.781588 1.3672911 1.014077e-38
-5.3919654 17.783806 1.3671983 1.0048219e-38
-5.3880744 17.783144 1.3674814 1.0140415e-38
-5.3874593 17.785355 1.367389 1.041556e-38
-5.3834748 17.784582 1.367684 1.0231169e-38
-5.3828621 17.786787 1.3675921 9.9545819e-39
-5.3822494 17.788992 1.3674998 9.401771e-39
-5.3816371 17.791195 1.3674077 8.7571275e-39
-5.3810244 17.7934 1.3673155 8.0213687e-39
-5.3728161 17.788774 1.3681034 8.7603799e-39
-5.3722081 17.790962 1.3680118 9.2231629e-39
-5.3716002 17.79315 1.3679203 1.0514269e-38
-5.3709922 17.795336 1.3678288 1.1713535e-38
-5.367105 17.79454 1.3681196 1.2912081e-38
-5.3631272 17.793642 1.3684216 1.4018426e-38
-5.3625236 17.795815 1.3683307 1.5307726e-38
-5.3585749 17.794916 1.3686312 1.6044569e-38
-5.3579731 17.797081 1.3685406 1.7148754e-38
-5.3540535 17.796183 1.3688394 1.7977795e-38
-5.3534536 17.79834 1.3687491 1.8530968e-38
-5.4363947 17.771307 1.3627914 3.9702093e-39
-5.4357581 17.773598 1.3626956 3.4170327e-39
-5.4351215 17.775888 1.3625998 2.9556916e-39
-5.4310913 17.775339 1.3628923 1.4805587e-39
-5.4304566 17.777622 1.3627967 4.6676131e-40
-5.4255514 17.776308 1.3631911 1.4812664e-39
-5.4249191 17.778582 1.3630961 3.7865088e-39
-5.4209509 17.778028 1.363385 6.1828679e-39
-5.4203205 17.780294 1.3632902 8.0256917e-39
-5.4162521 17.779629 1.363592 8.946562e-39
-5.4114547 17.77832 1.3639791 9.8663533e-39
-5.407445 17.777666 1.3642768 1.0048582e-38
-5.403461 17.777016 1.3645722 1.0415923e-38
-5.3986416 17.775625 1.3649657 1.0784343e-38
-5.3980227 17.777851 1.3648726 1.059995e-38
-5.3939762 17.7771 1.3651781 1.0047495e-38
-5.3933597 17.779318 1.3650854 9.8641827e-39
-5.3927431 17.781536 1.3649926 1.0140412e-38
-5.3921266 17.783754 1.3648999 1.0232611e-38
-5.3882341 17.783092 1.3651903 1.0232611e-38
-5.3876195 17.785303 1.3650976 1.0415563e-38
-5.3836346 17.784531 1.3654006 1.0231169e-38
-5.3830218 17.786736 1.3653085 9.8623862e-39
-5.3824096 17.78894 1.3652163 9.1251841e-39
-5.3817964 17.791143 1.3651241 8.4805406e-39
-5.3770127 17.78961 1.3655239 7.7451378e-39
-5.3729744 17.788723 1.365837 8.2072061e-39
-5.3723664 17.790911 1.3657454 8.946576e-39
-5.3717585 17.793098 1.365654 1.0422073e-38
-5.3711505 17.795286 1.3655627 1.1805731e-38
-5.3705425 17.797474 1.3654712 1.3096472e-38
-5.3666568 17.796669 1.3657694 1.4110624e-38
-5.3660507 17.798849 1.3656783 1.5215533e-38
-5.3620768 17.797937 1.3659889 1.5860178e-38
-5.35813 17.797031 1.3662971 1.6872167e-38
-5.3575282 17.799198 1.3662065 1.7793403e-38
-5.35361 17.79829 1.3665133 1.8530968e-38
-5.4365606 17.771254 1.3604184 4.1549649e-39
-5.4359241 17.773544 1.3603228 3.6017883e-39
-5.4352875 17.775835 1.360227 3.0486061e-39
-5.4312568 17.775286 1.360527 1.665666e-39
-5.4306221 17.777569 1.3604314 5.596758e-40
-5.4257159 17.776255 1.3608357 1.112844e-39
-5.4250841 17.77853 1.3607405 3.0493039e-39
-5.4211149 17.777975 1.3610368 5.4463819e-39
-5.4170437 17.777317 1.3613461 7.4732382e-39
-5.4164157 17.779575 1.3612516 8.8543664e-39
-5.4116178 17.778269 1.3616483 9.7741577e-39
-5.4076071 17.777615 1.3619534 9.9574657e-39
-5.4036226 17.776962 1.3622564 1.0232611e-38
-5.3988028 17.775574 1.3626593 1.0508475e-38
-5.3981838 17.7778 1.3625661 1.0324082e-38
-5.3941369 17.777048 1.3628795 1.0047495e-38
-5.3935204 17.779266 1.3627868 9.9563783e-39
-5.3929038 17.781485 1.362694 1.0140412e-38
-5.389009 17.780828 1.3629915 1.0140418e-38
-5.3883944 17.783041 1.3628991 1.0140418e-38
-5.3877797 17.785252 1.3628064 1.0415563e-38
-5.3837943 17.784481 1.363117 1.0231172e-38
-5.3831816 17.786684 1.3630248 9.7701906e-39
-5.3825693 17.788889 1.3629326 9.1251841e-39
-5.3819566 17.791094 1.3628405 8.388345e-39
-5.3771715 17.789558 1.3632499 7.7451378e-39
-5.3731332 17.788671 1.3635706 7.746228e-39
-5.3725247 17.790859 1.3634794 8.5777935e-39
-5.3719172 17.793047 1.3633878 1.0329878e-38
-5.3713088 17.795235 1.3632963 1.1897926e-38
-5.3707008 17.797422 1.3632047 1.3280864e-38
-5.3668151 17.796619 1.3635106 1.420282e-38
-5.3662086 17.7988 1.3634194 1.5215533e-38
-5.3622341 17.797888 1.3637377 1.5675789e-38
-5.3582869 17.796982 1.3640537 1.6596301e-38
-5.3576851 17.799147 1.363963 1.7609731e-38
-5.3537664 17.798241 1.3642774 1.8438773e-38
-5.4367266 17.771202 1.3580457 3.879101e-39
-5.43609 17.773491 1.3579499 3.5106744e-39
-5.4354534 17.775782 1.357854 3.2333575e-39
-5.4314222 17.775232 1.3581617 2.0351674e-39
-5.4307876 17.777515 1.3580664 1.02137e-39
-5.4258804 17.776203 1.3584799 1.2979513e-39
-5.4252486 17.778477 1.358385 3.1418555e-39
-5.421279 17.777924 1.3586887 5.4463791e-39
-5.4172072 17.777266 1.3590058 7.6579854e-39
-5.4165797 17.779524 1.3589113 8.9472809e-39
-5.4117808 17.778215 1.3593172 9.6826823e-39
-5.4077697 17.777561 1.3596299 1.0049661e-38
-5.4037848 17.776911 1.3599405 1.0324806e-38
-5.3989639 17.775522 1.360353 1.0416279e-38
-5.398345 17.777748 1.3602598 1.0324082e-38
-5.3977265 17.779974 1.3601669 1.0231886e-38
-5.393681 17.779215 1.3604881 1.014077e-38
-5.3930645 17.781433 1.3603953 1.0324804e-38
-5.3924475 17.783651 1.3603026 9.9560266e-39
-5.388555 17.78299 1.3606077 1.0047866e-38
-5.3879399 17.7852 1.3605154 1.0323011e-38
-5.383954 17.78443 1.3608335 1.0231172e-38
-5.3833413 17.786633 1.3607413 9.9545847e-39
-5.3827286 17.788837 1.3606492 9.401771e-39
-5.3821163 17.791042 1.360557 8.7571275e-39
-5.3773308 17.789509 1.3609757 8.1135644e-39
-5.3767204 17.791702 1.360884 7.8384236e-39
-5.3761106 17.793898 1.3607922 8.6699891e-39
-5.3720756 17.792997 1.3611214 1.0329878e-38
-5.3714676 17.795185 1.36103 1.1805734e-38
-5.3708591 17.797373 1.3609385 1.3188669e-38
-5.3702512 17.799561 1.3608472 1.4110626e-38
-5.3663669 17.798748 1.3611606 1.512298e-38
-5.3623919 17.797836 1.3614866 1.5675789e-38
-5.3584437 17.79693 1.3618101 1.6872888e-38
-5.357842 17.799097 1.3617197 1.7701927e-38
-5.3539224 17.798189 1.3620414 1.82551e-38
-5.4368925 17.771149 1.3556728 3.6954314e-39
-5.4362559 17.773439 1.355577 3.5110346e-39
-5.4315877 17.775181 1.3557965 2.2195573e-39
-5.430953 17.777464 1.3557012 1.4823454e-39
-5.4260454 17.77615 1.3561243 1.4837789e-39
-5.4220729 17.775604 1.3564353 3.1422156e-39
-5.421443 17.77787 1.3563406 5.447098e-39
-5.4173708 17.777212 1.3566654 7.5661499e-39
-5.412569 17.775913 1.3570802 9.0394737e-39
-5.4119434 17.778164 1.3569862 9.590844e-39
-5.4079323 17.77751 1.3573064 1.0141857e-38
-5.4039464 17.776859 1.3576247 1.0417002e-38
-5.3991251 17.775471 1.3580467 1.0416279e-38
-5.3985066 17.777697 1.3579535 1.0324083e-38
-5.3944588 17.776945 1.3582823 1.0324083e-38
-5.3938417 17.779163 1.3581897 1.0324804e-38
-5.3932252 17.781382 1.3580968 1.0324806e-38
-5.3926082 17.7836 1.3580041 1.0047866e-38
-5.3887148 17.782938 1.3583165 1.0140062e-38
-5.3881001 17.785151 1.3582242 1.0507403e-38
-5.3874855 17.787361 1.3581316 1.0415563e-38
-5.3835011 17.786583 1.3584578 1.0138976e-38
-5.3828883 17.788786 1.3583657 9.5861651e-39
-5.3780999 17.787262 1.3587935 9.0337144e-39
-5.3774896 17.789457 1.3587015 8.3901512e-39
-5.3768797 17.791653 1.3586098 8.2072061e-39
-5.3762693 17.793848 1.358518 8.8543832e-39
-5.3722339 17.792946 1.3588552 1.0237685e-38
-5.3716259 17.795134 1.3587638 1.1529147e-38
-5.3710179 17.797321 1.3586723 1.2819887e-38
-5.37041 17.799509 1.3585807 1.3925879e-38
-5.3665247 17.798698 1.3589019 1.5215178e-38
-5.3625493 17.797787 1.3592353 1.5860183e-38
-5.3586006 17.796881 1.3595666 1.7150193e-38
-5.3579988 17.799047 1.3594762 1.7703006e-38
-5.3540792 17.79814 1.3598055 1.7979593e-38
-5.4370584 17.771095 1.3533002 3.4195648e-39
-5.4364219 17.773386 1.3532043 3.5113905e-39
-5.4317527 17.775127 1.3534313 2.1277176e-39
-5.4268422 17.773823 1.353864 1.2990331e-39
-5.4228673 17.773285 1.3541819 1.2993848e-39
-5.4222374 17.775551 1.3540872 2.6815934e-39
-5.4181623 17.7749 1.3544192 4.986117e-39
-5.4175348 17.777161 1.3543248 7.382116e-39
-5.4127321 17.775862 1.3547493 8.8550825e-39
-5.4121065 17.778112 1.3546553 9.4064528e-39
-5.4080944 17.777458 1.3549831 1.0049659e-38
-5.4041085 17.776808 1.3553089 1.0417002e-38
-5.3992863 17.775419 1.3557403 1.0416279e-38
-5.3986678 17.777645 1.3556472 1.0324083e-38
-5.394619 17.776894 1.3559837 1.0416279e-38
-5.3940024 17.779112 1.355891 1.0324804e-38
-5.3933859 17.78133 1.3557982 1.0232611e-38
-5.3927693 17.78355 1.3557054 1.0416649e-38
-5.388875 17.782887 1.3560253 1.041665e-38
-5.3882604 17.785099 1.3559328 1.0691797e-38
-5.3876457 17.78731 1.3558404 1.0507403e-38
-5.3836608 17.786531 1.3561742 1.0231172e-38
-5.3830481 17.788736 1.3560821 9.5861651e-39
-5.3782587 17.78721 1.3565195 8.9415187e-39
-5.3776488 17.789406 1.3564276 8.20576e-39
-5.3770385 17.791601 1.3563358 8.2994018e-39
-5.3764286 17.793797 1.356244 8.7621876e-39
-5.3723922 17.792896 1.3565888 1.0053294e-38
-5.3717842 17.795084 1.3564974 1.1252561e-38
-5.3711762 17.79727 1.3564059 1.2542944e-38
-5.3672886 17.796467 1.3567342 1.3741487e-38
-5.3666825 17.798647 1.3566431 1.5122983e-38
-5.3627067 17.797737 1.3569843 1.5859826e-38
-5.3587575 17.796831 1.3573231 1.7334587e-38
-5.3581557 17.798996 1.3572326 1.7703006e-38
-5.3542356 17.79809 1.3575695 1.7979593e-38
-5.4372244 17.771042 1.3509271 3.1440527e-39
-5.4365878 17.773333 1.3508315 3.1436856e-39
-5.4319181 17.775074 1.3510664 2.1277148e-39
-5.4270067 17.773771 1.3515081 1.2068347e-39
-5.4263749 17.776045 1.3514131 7.4692992e-40
-5.4224014 17.775499 1.3517392 1.8529117e-39
-5.4217715 17.777765 1.3516444 4.3414665e-39
-5.4176984 17.777107 1.3519845 7.0133335e-39
-5.4128952 17.77581 1.3524183 8.7632428e-39
-5.4122696 17.778059 1.3523241 9.0376702e-39
-5.408257 17.777405 1.3526598 9.7737905e-39
-5.4042706 17.776756 1.3529931 1.0324806e-38
-5.3994479 17.775366 1.3534341 1.0324083e-38
-5.398829 17.777594 1.3533409 1.0231888e-38
-5.3947797 17.776842 1.353685 1.0324083e-38
-5.3941631 17.77906 1.3535923 1.0140412e-38
-5.3935466 17.781279 1.3534995 9.864547e-39
-5.39293 17.783499 1.3534068 1.0324455e-38
-5.3890352 17.782835 1.3537343 1.041665e-38
-5.3884206 17.785048 1.3536417 1.0691797e-38
-5.3878059 17.787258 1.3535494 1.0507403e-38
-5.3838205 17.78648 1.3538905 1.0138976e-38
-5.3832078 17.788685 1.3537985 9.5861651e-39
-5.3825951 17.790888 1.3537062 8.9415201e-39
-5.3778076 17.789356 1.3541535 8.20576e-39
-5.3771977 17.79155 1.3540617 7.9306192e-39
-5.3765874 17.793745 1.3539699 8.3934051e-39
-5.375977 17.79594 1.3538781 9.684511e-39
-5.371943 17.795033 1.354231 1.0975974e-38
-5.3713346 17.79722 1.3541397 1.2358553e-38
-5.3674464 17.796417 1.3544754 1.3557099e-38
-5.3634682 17.795513 1.3548239 1.4938235e-38
-5.362864 17.797686 1.354733 1.576763e-38
-5.3589144 17.796782 1.3550795 1.6965805e-38
-5.3583121 17.798946 1.3549891 1.7426779e-38
-5.3577104 17.801111 1.3548986 1.7887757e-38
-5.4320836 17.775021 1.348701 2.3124606e-39
-5.4314494 17.777304 1.3486055 1.3905015e-39
-5.4265394 17.775991 1.3490577 7.4512925e-40
-5.4259076 17.778265 1.3489624 1.5752444e-39
-5.4219356 17.777712 1.3492961 4.1556375e-39
-5.4178619 17.777056 1.3496442 7.0126146e-39
-5.4130583 17.775757 1.3500872 8.8547223e-39
-5.4124327 17.778008 1.3499932 8.7610834e-39
-5.4084196 17.777353 1.3503364 9.680876e-39
-5.4044323 17.776705 1.3506774 1.0232608e-38
-5.3996091 17.775314 1.3511276 1.0231886e-38
-5.3989902 17.777542 1.3510345 1.0231169e-38
-5.3949409 17.776791 1.3513865 1.0231888e-38
-5.3943238 17.779009 1.3512938 1.0139692e-38
-5.3937073 17.781227 1.3512011 9.8627492e-39
-5.3930907 17.783447 1.3511083 1.0139339e-38
-5.3891954 17.782784 1.3514432 1.0231537e-38
-5.3885808 17.784996 1.3513505 1.0415207e-38
-5.3845925 17.784225 1.3516992 1.0415207e-38
-5.3839798 17.786428 1.351607 1.0138976e-38
-5.3833675 17.788633 1.3515148 9.6783607e-39
-5.3785768 17.787109 1.351971 9.0337158e-39
-5.3779669 17.789305 1.3518795 8.4816308e-39
-5.3773565 17.7915 1.3517876 7.3770895e-39
-5.3767462 17.793695 1.3516959 8.1160993e-39
-5.3761363 17.795891 1.351604 9.5915965e-39
-5.3721013 17.794981 1.3519648 1.1067091e-38
-5.3714933 17.797169 1.3518734 1.2450028e-38
-5.3676043 17.796366 1.3522166 1.3740411e-38
-5.3669987 17.798546 1.3521253 1.484604e-38
-5.3630214 17.797636 1.352482 1.5583239e-38
-5.3590713 17.79673 1.352836 1.6597022e-38
-5.3584695 17.798897 1.3527457 1.7242388e-38
-5.3578672 17.801062 1.3526551 1.7887757e-38
-5.4267044 17.77594 1.3467019 1.0209917e-39
-5.4260721 17.778214 1.3466069 1.5730836e-39
-5.4221001 17.77766 1.3469481 3.1389674e-39
-5.4180255 17.777002 1.3473039 6.7338711e-39
-5.4132214 17.775705 1.3477564 8.9451201e-39
-5.4125957 17.777956 1.3476622 9.4968505e-39
-5.4085822 17.777302 1.348013 9.7723514e-39
-5.4045944 17.776651 1.3483615 1.0139691e-38
-5.3997707 17.775263 1.3488214 1.0323719e-38
-5.3991513 17.777491 1.3487282 1.0507394e-38
-5.3951015 17.776739 1.349088 1.0507394e-38
-5.394485 17.778957 1.3489952 1.0505958e-38
-5.393868 17.781176 1.3489023 1.0413762e-38
-5.3932514 17.783396 1.3488096 1.0415198e-38
-5.3893557 17.782734 1.3491518 1.0323363e-38
-5.388741 17.784945 1.3490592 1.0323364e-38
-5.3847523 17.784174 1.3494157 1.0323364e-38
-5.38414 17.786377 1.3493236 1.0139336e-38
-5.3793459 17.784863 1.3497889 9.5868882e-39
-5.378736 17.787058 1.349697 8.9418831e-39
-5.3781257 17.789253 1.3496053 8.3894352e-39
-5.3775158 17.791449 1.3495134 7.8366285e-39
-5.3769054 17.793644 1.3494219 8.4834427e-39
-5.3762956 17.795839 1.3493298 1.0235524e-38
-5.3722596 17.794931 1.3496985 1.1342597e-38
-5.3716516 17.797119 1.349607 1.2172004e-38
-5.3677621 17.796316 1.3499577 1.3739692e-38
-5.3637829 17.795412 1.3503217 1.5398853e-38
-5.3631787 17.797585 1.3502308 1.5491046e-38
-5.3592281 17.79668 1.3505926 1.6689215e-38
-5.3586264 17.798845 1.3505021 1.7242025e-38
-5.3580241 17.801012 1.3504115 1.7610807e-38
-5.4311452 17.779482 1.3437797 1.1121055e-39
-5.430511 17.781765 1.3436842 1.4805279e-39
-5.4222641 17.777607 1.3446 2.954216e-39
-5.418189 17.776951 1.3449634 6.5484008e-39
-5.413384 17.775654 1.3454252 8.7596526e-39
-5.4127588 17.777903 1.3453312 9.6812418e-39
-5.4087443 17.77725 1.3456897 9.9567399e-39
-5.4047565 17.7766 1.3460459 1.0324082e-38
-5.3999319 17.775211 1.3465148 1.050811e-38
-5.399313 17.777439 1.3464217 1.0691783e-38
-5.398694 17.779665 1.3463289 1.0875098e-38
-5.3946457 17.778906 1.3466965 1.0782185e-38
-5.3940287 17.781124 1.3466038 1.0689988e-38
-5.3934121 17.783344 1.3465109 1.0690704e-38
-5.3895164 17.782682 1.3468606 1.0415912e-38
-5.3889012 17.784893 1.3467683 1.0415915e-38
-5.384912 17.784122 1.347132 1.0324082e-38
-5.3842993 17.786327 1.3470399 1.0048219e-38
-5.3795052 17.784813 1.3475149 9.6790838e-39
-5.3788948 17.787008 1.347423 9.0340787e-39
-5.3782849 17.789202 1.3473313 8.4816308e-39
-5.3776746 17.791397 1.3472394 7.8366257e-39
-5.3770642 17.793592 1.3471476 8.4823609e-39
-5.3764544 17.795788 1.3470558 1.0141886e-38
-5.3724184 17.79488 1.3474321 1.124932e-38
-5.3718104 17.797068 1.3473408 1.2263476e-38
-5.3679204 17.796265 1.3476988 1.3739329e-38
-5.3639402 17.795362 1.3480706 1.5214462e-38
-5.3633361 17.797535 1.3479797 1.5306652e-38
-5.359385 17.796631 1.3483491 1.6504105e-38
-5.3587832 17.798796 1.3482585 1.7057633e-38
-5.358181 17.800961 1.348168 1.7610807e-38
-5.4313107 17.779428 1.3414146 1.2043039e-39
-5.4264016 17.778107 1.3418956 1.6645632e-39
-5.4224281 17.777555 1.3422518 3.0460557e-39
-5.4183531 17.776897 1.342623 6.3647327e-39
-5.4177246 17.779158 1.3425286 8.4841447e-39
-5.4129219 17.777851 1.3430002 9.7734374e-39
-5.4089069 17.777197 1.3433661 1.0141134e-38
-5.4082837 17.77944 1.3432726 1.0324804e-38
-5.4000931 17.77516 1.3442085 1.0692146e-38
-5.3994741 17.777386 1.3441155 1.0783981e-38
-5.3988552 17.779613 1.3440225 1.0967293e-38
-5.3982368 17.781839 1.3439292 1.0966576e-38
-5.3941894 17.781073 1.3443053 1.0782545e-38
-5.3935728 17.783293 1.3442125 1.0599587e-38
-5.3896761 17.782631 1.3445693 1.0508107e-38
-5.3890615 17.784842 1.3444771 1.050811e-38
-5.3850718 17.784071 1.3448485 1.0416277e-38
-5.384459 17.786276 1.3447564 1.0048219e-38
-5.3796639 17.784761 1.3452406 9.7716353e-39
-5.3790536 17.786957 1.3451488 9.1266303e-39
-5.3784437 17.789152 1.3450572 8.5741824e-39
-5.3778334 17.791348 1.3449653 7.9291773e-39
-5.3772235 17.793543 1.3448735 8.2061299e-39
-5.3766136 17.795738 1.3447819 9.6809069e-39
-5.3725767 17.79483 1.345166 1.0973086e-38
-5.3719687 17.797018 1.3450744 1.2079081e-38
-5.3680782 17.796215 1.34544 1.3647488e-38
-5.3640976 17.795311 1.3458194 1.493787e-38
-5.3634934 17.797485 1.3457284 1.503042e-38
-5.3595419 17.796579 1.3461056 1.6227518e-38
-5.3589401 17.798746 1.346015 1.6965438e-38
-5.3583379 17.800911 1.3459245 1.7703003e-38
-5.4321103 17.777092 1.3391447 7.4440478e-40
-5.4314761 17.779375 1.3390493 1.0199127e-39
-5.4265666 17.778055 1.33954 1.3879763e-39
-5.4259348 17.780329 1.3394449 2.7701877e-39
-5.4219627 17.77977 1.3398089 6.272537e-39
-5.4178886 17.779104 1.340188 8.3915932e-39
-5.4130845 17.7778 1.3406692 9.6812432e-39
-5.4090695 17.777145 1.3410428 9.9574657e-39
-5.4050803 17.776497 1.3414141 1.0416999e-38
-5.404459 17.778732 1.3413206 1.060067e-38
-5.3996353 17.777334 1.3418092 1.0692147e-38
-5.3990164 17.779562 1.3417161 1.0691428e-38
-5.3983979 17.781788 1.3416229 1.0874743e-38
-5.3943501 17.781021 1.3420066 1.0874743e-38
-5.3937335 17.783241 1.3419137 1.0415915e-38
-5.3898363 17.782579 1.3422782 1.0415915e-38
-5.3892217 17.78479 1.3421857 1.0324079e-38
-5.3852315 17.784019 1.3425649 1.0324082e-38
-5.3846188 17.786224 1.3424728 1.0048217e-38
-5.3798227 17.78471 1.3429666 9.5876042e-39
-5.3792129 17.786905 1.3428749 8.9429593e-39
-5.378603 17.789101 1.3427831 8.5741796e-39
-5.3779926 17.791296 1.3426913 8.1135672e-39
-5.3773828 17.793491 1.3425994 8.1139315e-39
-5.3733435 17.792591 1.3429911 9.2210021e-39
-5.372735 17.794779 1.3428997 1.0696498e-38
-5.3721271 17.796967 1.3428081 1.1987238e-38
-5.3682365 17.796164 1.3431811 1.3555287e-38
-5.364255 17.795261 1.3435682 1.4846029e-38
-5.3603005 17.794365 1.3439527 1.4846026e-38
-5.3596988 17.79653 1.3438622 1.613568e-38
-5.359097 17.798695 1.3437715 1.6965438e-38
-5.3584948 17.800861 1.343681 1.7795198e-38
-5.4322758 17.77704 1.3367795 1.9087367e-40
-5.4316416 17.779324 1.3366841 3.7454466e-40
-5.4310069 17.781607 1.3365887 8.3480394e-40
-5.4260993 17.780275 1.3370893 2.2170167e-39
-5.4221268 17.779716 1.3374608 5.7193661e-39
-5.4180522 17.779053 1.3378478 7.8391397e-39
-5.4132476 17.777746 1.3383383 9.4050192e-39
-5.4092317 17.777094 1.3387195 9.7734374e-39
-5.4052424 17.776445 1.3390983 1.023333e-38
-5.4046211 17.778681 1.3390048 1.0417002e-38
-5.3997965 17.777283 1.3395029 1.0507758e-38
-5.399178 17.77951 1.3394097 1.0506684e-38
-5.3985591 17.781736 1.3393166 1.0506686e-38
-5.3945112 17.78097 1.3397079 1.0598879e-38
-5.3938942 17.78319 1.3396151 1.0323363e-38
-5.3899965 17.782528 1.3399872 1.0231883e-38
-5.3893819 17.78474 1.3398947 1.0231886e-38
-5.3853912 17.78397 1.3402814 1.0231888e-38
-5.3847785 17.786173 1.3401892 9.9560238e-39
-5.379982 17.78466 1.3406925 9.4954086e-39
-5.3793721 17.786856 1.3406008 8.851121e-39
-5.3787618 17.789049 1.3405088 8.4819839e-39
-5.3781514 17.791245 1.3404173 8.2979584e-39
-5.3775415 17.79344 1.3403254 8.1139287e-39
-5.3769312 17.795635 1.3402337 9.221358e-39
-5.3728933 17.794727 1.3406333 1.0696851e-38
-5.3722854 17.796915 1.340542 1.1987593e-38
-5.3683944 17.796114 1.3409225 1.3463446e-38
-5.3644123 17.79521 1.3413172 1.4846382e-38
-5.3604574 17.794313 1.3417091 1.5030772e-38
-5.3598557 17.79648 1.3416185 1.5951289e-38
-5.3592539 17.798645 1.3415282 1.6873242e-38
-5.35533 17.797739 1.341918 1.7795198e-38
-5.4324417 17.776987 1.3344145 1.9159253e-40
-5.431807 17.77927 1.3343189 3.7526493e-40
-5.4268961 17.77795 1.3348289 8.3516688e-40
-5.4262638 17.780224 1.3347336 2.308855e-39
-5.4222908 17.779663 1.3351128 5.719729e-39
-5.4182158 17.778999 1.3355075 7.6554715e-39
-5.4134107 17.777695 1.3360071 9.1295141e-39
-5.4093943 17.777042 1.3363961 9.5897664e-39
-5.4054041 17.776394 1.3367826 1.0049661e-38
-5.4047828 17.778629 1.336689 1.0232974e-38
-5.3999581 17.777231 1.3371965 1.032373e-38
-5.3993392 17.779457 1.3371034 1.0230818e-38
-5.3987203 17.781685 1.3370103 1.0322657e-38
-5.3946719 17.780918 1.3374094 1.0507405e-38
-5.3940549 17.783138 1.3373165 1.0139336e-38
-5.3901567 17.782476 1.3376958 1.0139692e-38
-5.3895421 17.784689 1.3376033 1.0139336e-38
-5.385551 17.783918 1.3379978 1.0048219e-38
-5.3807511 17.782413 1.3385103 9.7719955e-39
-5.3801413 17.784609 1.3384185 9.4954114e-39
-5.3795309 17.786804 1.3383267 8.758568e-39
-5.3789206 17.789 1.3382348 8.2983115e-39
-5.3783107 17.791195 1.3381431 8.2986773e-39
-5.3777008 17.79339 1.3380513 8.2061243e-39
-5.3736601 17.79249 1.3384585 9.221358e-39
-5.3730521 17.794678 1.3383671 1.0789047e-38
-5.3724442 17.796865 1.3382756 1.1619889e-38
-5.3685522 17.796062 1.3386636 1.3187215e-38
-5.3645701 17.79516 1.339066 1.4754185e-38
-5.3606143 17.794264 1.3394656 1.5215163e-38
-5.3600125 17.796429 1.339375 1.5766895e-38
-5.3594108 17.798595 1.3392847 1.6781047e-38
-5.3554859 17.797689 1.339682 1.7795198e-38
-5.4326072 17.776934 1.3320491 6.5257348e-40
-5.4276924 17.775623 1.3325683 1.0206371e-39
-5.4270606 17.777897 1.3324733 1.4805391e-39
-5.4230852 17.777346 1.3328593 2.769836e-39
-5.4190078 17.77669 1.3332615 5.904123e-39
-5.4141994 17.775393 1.3337704 7.6554715e-39
-5.4135737 17.777643 1.3336762 9.0369626e-39
-5.4095569 17.776989 1.3340727 9.5894105e-39
-5.4055662 17.776342 1.3344667 1.0049664e-38
-5.4049444 17.778576 1.3343731 1.0232976e-38
-5.4001193 17.77718 1.3348902 1.0140062e-38
-5.3995004 17.779406 1.334797 1.0138984e-38
-5.3988819 17.781633 1.3347039 1.032266e-38
-5.3948326 17.780869 1.3351108 1.0507051e-38
-5.3942161 17.783087 1.335018 1.0231537e-38
-5.390317 17.782425 1.3354048 1.0048222e-38
-5.3897023 17.784637 1.3353121 1.0047866e-38
-5.3857102 17.783867 1.3357143 1.0047866e-38
-5.3809099 17.782362 1.3362361 9.8641953e-39
-5.3803 17.784557 1.3361443 9.4954128e-39
-5.3796902 17.786753 1.3360525 8.8507665e-39
-5.3790798 17.788948 1.3359609 8.3901512e-39
-5.3784699 17.791143 1.335869 8.2064816e-39
-5.3778596 17.793339 1.3357773 8.2061243e-39
-5.3738184 17.792439 1.3361923 9.3135537e-39
-5.3732104 17.794626 1.3361008 1.0789047e-38
-5.3726025 17.796814 1.3360091 1.1435498e-38
-5.36871 17.796013 1.3364048 1.2818432e-38
-5.368104 17.798193 1.3363136 1.4569793e-38
-5.3641233 17.797283 1.3367239 1.5399554e-38
-5.3601694 17.796379 1.3371316 1.5674699e-38
-5.3595676 17.798544 1.337041 1.6781047e-38
-5.3589654 17.800711 1.3369504 1.7795198e-38
-5.4327722 17.77688 1.3296839 7.4441318e-40
-5.4278574 17.77557 1.3302126 1.2050312e-39
-5.4272256 17.777843 1.3301176 1.6649303e-39
-5.4232492 17.777292 1.3305112 2.769836e-39
-5.4191713 17.776636 1.3309211 5.7197318e-39
-5.414362 17.775341 1.3314393 7.2866918e-39
-5.4137368 17.77759 1.3313452 9.0376829e-39
-5.4131112 17.77984 1.331251 9.6816061e-39
-5.4090958 17.779181 1.3316556 1.0050026e-38
-5.4051065 17.778524 1.3320574 1.014186e-38
-5.4002805 17.777128 1.3325838 1.0140063e-38
-5.399662 17.779354 1.3324907 9.9556749e-39
-5.3990431 17.781582 1.3323977 1.0323381e-38
-5.3949928 17.780817 1.3328121 1.0507772e-38
-5.3943768 17.783035 1.3327193 1.0140066e-38
-5.3904772 17.782373 1.3331134 1.0140063e-38
-5.3898625 17.784586 1.333021 1.0140066e-38
-5.38587 17.783815 1.3334308 1.0048231e-38
-5.3852572 17.78602 1.3333385 9.9560378e-39
-5.384645 17.788225 1.3332465 9.403943e-39
-5.379849 17.786703 1.3337784 8.8511322e-39
-5.3792386 17.788897 1.3336868 8.4823497e-39
-5.3786287 17.791092 1.3335949 8.1139287e-39
-5.3780184 17.793287 1.3335032 7.9306192e-39
-5.3774085 17.795483 1.3334112 9.221721e-39
-5.3733692 17.794577 1.3338344 1.0696854e-38
-5.3727608 17.796764 1.3337431 1.1251107e-38
-5.3688679 17.795961 1.3341459 1.2633685e-38
-5.3682618 17.798141 1.3340547 1.4477598e-38
-5.3642807 17.797232 1.3344728 1.549175e-38
-5.3603263 17.796329 1.3348882 1.5766895e-38
-5.3597245 17.798494 1.3347975 1.6781047e-38
-5.3591228 17.800661 1.3347069 1.7795198e-38
-5.4286537 17.773243 1.3279521 1.3894225e-39
-5.4280219 17.775518 1.327857 1.2972268e-39
-5.4273901 17.777792 1.3277619 1.6649332e-39
-5.4234133 17.777241 1.3281631 2.8620344e-39
-5.4193349 17.776585 1.3285809 5.258755e-39
-5.414525 17.775288 1.3291082 7.6554743e-39
-5.4138999 17.777538 1.3290141 8.9454872e-39
-5.4098816 17.776886 1.3294259 9.405022e-39
-5.4092584 17.779129 1.3293321 9.7734416e-39
-5.4052687 17.778473 1.3297416 9.9571112e-39
-5.4004416 17.777077 1.3302774 1.0232262e-38
-5.3998232 17.779303 1.3301843 1.0232262e-38
-5.3992043 17.78153 1.3300914 1.0415577e-38
-5.395154 17.780766 1.3305135 1.0415221e-38
-5.3945374 17.782984 1.3304207 1.0416297e-38
-5.3939204 17.785202 1.3303279 1.0048233e-38
-5.3900228 17.784534 1.3307298 1.0048236e-38
-5.3860297 17.783766 1.3311472 1.0232628e-38
-5.385417 17.785969 1.3310549 1.0509214e-38
-5.3848042 17.788174 1.3309628 1.0048958e-38
-5.3800077 17.786652 1.3315043 9.1273646e-39
-5.3793979 17.788847 1.3314126 8.4819951e-39
-5.3787875 17.791042 1.3313209 7.929543e-39
-5.3781776 17.793238 1.3312292 7.7458748e-39
-5.3775678 17.795431 1.3311372 8.4841587e-39
-5.3735275 17.794525 1.3315682 1.0419911e-38
-5.3729196 17.796713 1.3314767 1.2264903e-38
-5.3690262 17.795912 1.331887 1.3740034e-38
-5.3684201 17.798092 1.3317959 1.4569795e-38
-5.3644381 17.797182 1.3322217 1.5030772e-38
-5.3604832 17.796278 1.3326446 1.5766895e-38
-5.3598814 17.798445 1.3325541 1.6412264e-38
-5.3592792 17.80061 1.3324634 1.733422e-38
-5.4288187 17.773191 1.3255966 2.2191831e-39
-5.4281869 17.775465 1.3255014 2.4024954e-39
-5.4275551 17.777739 1.3254063 2.5861706e-39
-5.4235778 17.777187 1.3258151 3.5074038e-39
-5.4194984 17.776531 1.3262403 5.6275376e-39
-5.4146881 17.775236 1.3267773 7.930985e-39
-5.4140625 17.777485 1.3266833 9.2213552e-39
-5.4134374 17.779736 1.3265891 9.5894133e-39
-5.409421 17.779076 1.3270087 9.9578329e-39
-5.4054303 17.778421 1.3274258 1.0233698e-38
-5.404809 17.780657 1.3273323 1.0416653e-38
-5.3999844 17.779251 1.3278781 1.0324457e-38
-5.3993654 17.781479 1.3277849 1.0415221e-38
-5.3953147 17.780714 1.328215 1.0231909e-38
-5.3946981 17.782932 1.3281221 1.0324823e-38
-5.3907976 17.782272 1.3285311 1.0232628e-38
-5.390183 17.784483 1.3284386 1.0140075e-38
-5.3861895 17.783714 1.3288635 1.0233349e-38
-5.3855767 17.785917 1.3287714 1.041774e-38
-5.384964 17.788122 1.3286792 1.0049321e-38
-5.380167 17.7866 1.3292303 9.3117586e-39
-5.3795571 17.788795 1.3291385 8.5749124e-39
-5.3789468 17.790991 1.3290468 8.206853e-39
-5.3783369 17.793186 1.3289549 8.1146574e-39
-5.3777266 17.795382 1.3288631 8.7603897e-39
-5.3736858 17.794474 1.3293017 1.0327715e-38
-5.3730783 17.796661 1.3292104 1.1803926e-38
-5.3724699 17.798849 1.329119 1.3002469e-38
-5.368578 17.79804 1.3295372 1.383223e-38
-5.3645954 17.797132 1.3299706 1.4385404e-38
-5.36064 17.796228 1.3304012 1.5951289e-38
-5.3600383 17.798393 1.3303106 1.6596655e-38
-5.359436 17.80056 1.33022 1.7518612e-38
-5.4289832 17.773138 1.3232409 3.0478648e-39
-5.4283514 17.775412 1.3231457 3.1400632e-39
-5.4243717 17.774868 1.3235617 3.1393444e-39
-5.4237418 17.777134 1.323467 3.7839907e-39
-5.419662 17.77648 1.3238999 5.6275376e-39
-5.4148507 17.775183 1.3244462 7.8387893e-39
-5.4142256 17.777433 1.3243521 9.2213552e-39
-5.4102063 17.776781 1.3247793 9.6816089e-39
-5.4095831 17.779024 1.3246855 1.0142224e-38
-5.4055924 17.77837 1.32511 1.0325894e-38
-5.4049711 17.780605 1.3250165 1.0508849e-38
-5.4001455 17.7792 1.3255717 1.0232262e-38
-5.3995271 17.781425 1.3254786 1.023083e-38
-5.3954754 17.780663 1.3259163 9.9553218e-39
-5.3948588 17.782881 1.3258235 1.0232628e-38
-5.3909578 17.782221 1.3262398 9.8645653e-39
-5.3903432 17.784431 1.3261473 9.8645667e-39
-5.3897285 17.786644 1.3260549 1.0141154e-38
-5.3857365 17.785868 1.326488 1.0325548e-38
-5.3851237 17.788071 1.3263958 9.9571252e-39
-5.3803258 17.786549 1.3269563 9.3117586e-39
-5.3797159 17.788744 1.3268645 8.6671081e-39
-5.379106 17.790939 1.3267726 7.7458748e-39
-5.3784957 17.793135 1.3266808 7.8380705e-39
-5.3778853 17.79533 1.3265892 8.4838028e-39
-5.3738441 17.794424 1.3270357 1.0051129e-38
-5.3732367 17.796612 1.3269442 1.1435143e-38
-5.3726282 17.7988 1.3268527 1.2725882e-38
-5.3687358 17.797991 1.3272784 1.3924069e-38
-5.3647532 17.797081 1.3277194 1.4754186e-38
-5.3607969 17.796179 1.3281577 1.613568e-38
-5.3601952 17.798344 1.3280669 1.6781047e-38
-5.3595929 17.80051 1.3279766 1.7610807e-38
-5.4291482 17.773087 1.3208854 3.4166501e-39
-5.4285159 17.77536 1.3207901 3.5081269e-39
-5.4245362 17.774817 1.3212136 3.4148523e-39
-5.4204535 17.774168 1.3216541 3.8754675e-39
-5.419826 17.776426 1.3215595 5.6268187e-39
-5.4150138 17.775131 1.3221153 7.7465937e-39
-5.4143887 17.777382 1.3220211 9.3124719e-39
-5.4137635 17.779631 1.3219271 9.6808901e-39
-5.4097457 17.778973 1.3223621 1.0141505e-38
-5.4091225 17.781216 1.3222682 1.0417369e-38
-5.4051328 17.780554 1.3227007 1.0416653e-38
-5.4003067 17.779148 1.3232653 1.0047871e-38
-5.3996882 17.781374 1.3231722 1.0046794e-38
-5.3956361 17.780611 1.3236177 9.6787349e-39
-5.3950195 17.782829 1.3235248 9.8638422e-39
-5.391118 17.782169 1.3239487 9.6805299e-39
-5.3905034 17.78438 1.3238562 9.680174e-39
-5.3865089 17.783611 1.3242965 9.7730885e-39
-5.3858962 17.785816 1.3242043 9.8652855e-39
-5.3852835 17.788019 1.3241121 9.6808943e-39
-5.3804851 17.786499 1.3246821 9.0358878e-39
-5.3798747 17.788694 1.3245903 8.5749096e-39
-5.3792648 17.79089 1.3244987 7.745872e-39
-5.3786545 17.793085 1.3244067 7.8380705e-39
-5.3780446 17.795279 1.324315 8.5763544e-39
-5.3740029 17.794373 1.3247694 1.0051129e-38
-5.373395 17.79656 1.3246778 1.1342946e-38
-5.3727865 17.798748 1.3245863 1.2725882e-38
-5.3688941 17.797939 1.3250195 1.4108817e-38
-5.3649106 17.797031 1.3254682 1.5122969e-38
-5.3609538 17.796127 1.3259143 1.5951289e-38
-5.3603516 17.798294 1.3258235 1.6596655e-38
-5.3597498 17.800459 1.3257331 1.7518612e-38
-5.4286809 17.775307 1.3184346 3.7836348e-39
-5.4247003 17.774763 1.3188654 3.4144921e-39
-5.4206176 17.774115 1.3193136 3.782553e-39
-5.4199896 17.776375 1.3192194 5.810131e-39
-5.4151769 17.77508 1.3197843 8.0224617e-39
-5.4145517 17.777328 1.3196902 9.2202762e-39
-5.4139261 17.779579 1.3195961 9.6808901e-39
-5.4099083 17.778921 1.3200388 1.004931e-38
-5.4092846 17.781164 1.3199449 1.0417369e-38
-5.4052949 17.7805 1.3203849 1.041665e-38
-5.4046736 17.782736 1.3202914 1.0323378e-38
-5.3998494 17.781322 1.3208659 1.0046794e-38
-5.3992305 17.783548 1.3207729 9.7709277e-39
-5.3951802 17.782778 1.3212264 9.6805271e-39
-5.3945637 17.784996 1.3211337 9.5890504e-39
-5.3939466 17.787216 1.3210406 9.5890504e-39
-5.390049 17.786541 1.3214726 9.7734416e-39
-5.3860559 17.785765 1.3219208 9.7730857e-39
-5.3854432 17.78797 1.3218285 9.4972177e-39
-5.3806443 17.786448 1.3224081 9.0362423e-39
-5.380034 17.788643 1.3223163 8.6671025e-39
-5.3794241 17.790838 1.3222245 8.6681843e-39
-5.3788137 17.793034 1.3221327 8.6681843e-39
-5.3782034 17.795229 1.3220409 9.1295254e-39
-5.3741612 17.794323 1.3225029 1.0328071e-38
-5.3735533 17.796511 1.3224114 1.1343302e-38
-5.3729453 17.798698 1.32232 1.2449294e-38
-5.3690519 17.79789 1.3227607 1.3740033e-38
-5.3650675 17.79698 1.3232173 1.4661989e-38
-5.3611107 17.796078 1.3236706 1.5582503e-38
-5.3605089 17.798243 1.32358 1.6320068e-38
-5.3599072 17.800409 1.3234894 1.7242025e-38
-5.4288459 17.775253 1.316079 3.5066877e-39
-5.4282136 17.777527 1.3159839 3.0449907e-39
-5.4207811 17.774063 1.3169733 3.5048871e-39
-5.4201531 17.776321 1.3168788 5.5328252e-39
-5.4153399 17.775026 1.3174533 7.9291871e-39
-5.4147148 17.777277 1.3173591 9.4043074e-39
-5.4140892 17.779528 1.3172652 9.7727256e-39
-5.4134636 17.781776 1.317171 1.0324818e-38
-5.4094472 17.781111 1.3176215 1.0508846e-38
-5.408824 17.783354 1.3175278 1.0692158e-38
-5.4048357 17.782684 1.3179756 1.0507767e-38
-5.4000106 17.781271 1.3185595 1.0323378e-38
-5.3959579 17.780508 1.3190205 1.0140066e-38
-5.3953409 17.782726 1.3189279 9.9571112e-39
-5.3947244 17.784945 1.318835 9.865633e-39
-5.3941078 17.787165 1.3187423 9.865633e-39
-5.3902092 17.786489 1.3191814 9.9578287e-39
-5.3862157 17.785713 1.3196373 9.8663533e-39
-5.385603 17.787918 1.3195449 9.5897664e-39
-5.3849902 17.790123 1.3194529 9.2206308e-39
-5.3801928 17.788591 1.3200421 8.7607316e-39
-5.3795829 17.790787 1.3199505 8.5759844e-39
-5.3789725 17.792982 1.3198587 8.4837902e-39
-5.3783627 17.795177 1.3197669 8.9451313e-39
-5.37432 17.794271 1.3202367 1.023587e-38
-5.3737121 17.796459 1.3201452 1.1527691e-38
-5.3731036 17.798647 1.3200538 1.281843e-38
-5.3692098 17.797838 1.3205018 1.3924777e-38
-5.3652253 17.79693 1.320966 1.4754541e-38
-5.3646212 17.799103 1.320875 1.5398112e-38
-5.3606653 17.798193 1.3213365 1.6135677e-38
-5.360064 17.80036 1.321246 1.7057633e-38
-5.4290104 17.775202 1.3137233 3.691079e-39
-5.4250288 17.774658 1.3141693 3.1371836e-39
-5.4243984 17.776924 1.3140744 3.505243e-39
-5.4203167 17.77627 1.3145384 5.4406296e-39
-5.415503 17.774975 1.3151222 7.8369915e-39
-5.4148779 17.777225 1.3150282 9.3121117e-39
-5.4142523 17.779474 1.314934 9.6805271e-39
-5.4136267 17.781725 1.31484 1.0140782e-38
-5.4096098 17.781059 1.3152982 1.0416649e-38
-5.4089866 17.783302 1.3152043 1.0599962e-38
-5.4049973 17.782633 1.3156598 1.0599962e-38
-5.4001718 17.781219 1.3162533 1.0691442e-38
-5.3961186 17.780457 1.3167218 1.0599962e-38
-5.3955016 17.782675 1.3166292 1.0141857e-38
-5.3948851 17.784893 1.3165364 1.0050375e-38
-5.3942685 17.787113 1.3164436 1.0050377e-38
-5.3903694 17.786438 1.3168901 1.0050377e-38
-5.3897548 17.788651 1.3167976 9.8663491e-39
-5.3857627 17.787867 1.3172615 9.5897622e-39
-5.3809619 17.786346 1.3178599 9.0373129e-39
-5.380352 17.788542 1.3177681 8.8529217e-39
-5.3797421 17.790737 1.3176763 8.0231638e-39
-5.3791318 17.792933 1.3175846 7.8394942e-39
-5.3785219 17.795126 1.3174928 8.392312e-39
-5.3744783 17.79422 1.3179704 9.9596392e-39
-5.3738704 17.796408 1.3178788 1.1619884e-38
-5.3699737 17.795609 1.3183341 1.3095014e-38
-5.3693676 17.797789 1.3182429 1.4109166e-38
-5.3653827 17.796881 1.3187149 1.4846733e-38
-5.3614244 17.795977 1.3191836 1.5490308e-38
-5.3608227 17.798143 1.319093 1.6227873e-38
-5.3602209 17.800308 1.3190025 1.7149829e-38
-5.4291749 17.775148 1.3113678 4.5208397e-39
-5.4251928 17.774605 1.3118211 3.8747514e-39
-5.4245629 17.776873 1.3117265 3.9669442e-39
-5.4204803 17.776217 1.312198 5.9023294e-39
-5.4156661 17.774923 1.3127912 8.1146602e-39
-5.415041 17.777172 1.3126972 9.035885e-39
-5.4144154 17.779423 1.3126034 9.4039402e-39
-5.4137897 17.781673 1.3125091 9.8641953e-39
-5.4097724 17.781008 1.3129749 1.0140062e-38
-5.4091487 17.783251 1.312881 1.0232258e-38
-5.4051595 17.782581 1.313344 1.0507767e-38
-5.4003334 17.781168 1.313947 1.0691439e-38
-5.3997145 17.783394 1.3138537 1.0692515e-38
-5.3956623 17.782623 1.3143307 1.023333e-38
-5.3950458 17.784842 1.3142378 1.0050013e-38
-5.3944292 17.787062 1.3141451 1.0050014e-38
-5.3905296 17.786386 1.314599 1.0050014e-38
-5.3865352 17.785612 1.31507 9.7737905e-39
-5.385922 17.787815 1.314978 9.4972037e-39
-5.3811212 17.786295 1.3155859 9.128068e-39
-5.3805113 17.78849 1.3154939 8.8522014e-39
-5.3799009 17.790686 1.3154023 8.5752586e-39
-5.3792906 17.792881 1.3153105 8.1153622e-39
-5.3786807 17.795076 1.3152187 8.4837888e-39
-5.3746367 17.79417 1.315704 9.8674435e-39
-5.3740287 17.796358 1.3156128 1.1435848e-38
-5.3701315 17.795557 1.3160753 1.2726231e-38
-5.3661442 17.794657 1.3165547 1.3372322e-38
-5.36554 17.796829 1.3164637 1.3924777e-38
-5.3615813 17.795927 1.3169401 1.5675418e-38
-5.3609796 17.798094 1.3168495 1.6320787e-38
-5.3570495 17.79719 1.3173231 1.733422e-38
-5.4293394 17.775095 1.3090122 4.8899823e-39
-5.4253569 17.774553 1.309473 5.2580502e-39
-5.424727 17.776819 1.3093783 6.2722021e-39
-5.4206443 17.776165 1.3098576 7.2856324e-39
-5.4158292 17.77487 1.3104603 7.562571e-39
-5.4152036 17.777121 1.3103662 8.6685472e-39
-5.414578 17.779371 1.3102721 9.405022e-39
-5.4139528 17.78162 1.310178 1.0050024e-38
-5.4099345 17.780954 1.3106514 1.0234053e-38
-5.4059429 17.780294 1.3111216 1.0232613e-38
-5.4053216 17.78253 1.3110281 1.0231534e-38
-5.4004946 17.781116 1.3116405 1.0322657e-38
-5.39644 17.780354 1.3121248 1.0508124e-38
-5.3958235 17.782572 1.312032 1.023333e-38
-5.3952065 17.78479 1.3119392 1.0141131e-38
-5.3913045 17.784124 1.3124002 1.0141131e-38
-5.3906898 17.786337 1.3123077 1.0233327e-38
-5.3866949 17.785561 1.3127865 1.0324806e-38
-5.3860822 17.787766 1.3126944 1.0140415e-38
-5.3854694 17.789968 1.3126022 9.5868882e-39
-5.3806701 17.788439 1.31322 9.1266303e-39
-5.3800597 17.790634 1.3131282 7.7444189e-39
-5.3794498 17.79283 1.3130362 8.1135644e-39
-5.3788395 17.795025 1.3129445 8.6671025e-39
-5.374795 17.794119 1.3134379 9.4979449e-39
-5.3741875 17.796307 1.3133464 1.0974517e-38
-5.3702898 17.795507 1.3138165 1.2910988e-38
-5.3663015 17.794605 1.3143035 1.4018057e-38
-5.36234 17.793711 1.3147871 1.4294644e-38
-5.3617382 17.795877 1.3146966 1.5123686e-38
-5.361136 17.798042 1.3146061 1.5768337e-38
-5.3572059 17.79714 1.3150868 1.6873961e-38
-5.4295044 17.775043 1.3066566 4.8899837e-39
-5.4255214 17.7745 1.3071249 4.8896306e-39
-5.424891 17.776768 1.3070301 5.535e-39
-5.4208078 17.776112 1.3075174 6.4565934e-39
-5.4159923 17.774818 1.3081292 6.9179233e-39
-5.4153666 17.777069 1.3080351 9.1295254e-39
-5.4147415 17.779318 1.3079411 9.4982967e-39
-5.4141159 17.781569 1.3078471 9.9585475e-39
-5.4100971 17.780903 1.3083279 1.0141854e-38
-5.4094739 17.783146 1.3082343 1.0048938e-38
-5.4054832 17.782478 1.3087125 9.9560238e-39
-5.4006557 17.781065 1.3093342 1.0230818e-38
-5.4000368 17.783291 1.3092412 1.0231537e-38
-5.3959837 17.78252 1.3097334 1.0140415e-38
-5.3953671 17.784739 1.3096405 9.9567399e-39
-5.3914647 17.784073 1.3101091 1.0048217e-38
-5.3874669 17.783304 1.3105953 1.0140412e-38
-5.3868542 17.785509 1.310503 1.0323727e-38
-5.3862419 17.787714 1.3104109 1.0139339e-38
-5.3814392 17.786194 1.3110377 9.5861679e-39
-5.3808293 17.788389 1.3109457 9.0337158e-39
-5.380219 17.790585 1.3108542 8.3883492e-39
-5.3796091 17.792778 1.3107623 8.3894352e-39
-5.3789988 17.794973 1.3106705 8.6667423e-39
-5.3749537 17.794069 1.3111714 9.3131977e-39
-5.3743458 17.796257 1.31108 1.0790128e-38
-5.3704476 17.795456 1.3115578 1.2542927e-38
-5.3698416 17.797636 1.3114665 1.3833309e-38
-5.3624969 17.793661 1.3125436 1.4018779e-38
-5.3618951 17.795826 1.312453 1.5215883e-38
-5.3579626 17.794931 1.3129413 1.5861251e-38
-5.3573623 17.797089 1.312851 1.7150192e-38
-5.4296694 17.77499 1.3043009 4.3368128e-39
-5.4290371 17.777264 1.3042058 4.3364596e-39
-5.4250555 17.776714 1.304682 4.8896334e-39
-5.4209714 17.77606 1.305177 5.811224e-39
-5.4203434 17.778318 1.3050824 6.4569451e-39
-5.4155297 17.777016 1.3057044 9.221721e-39
-5.4149041 17.779266 1.3056103 9.4982967e-39
-5.4142785 17.781517 1.305516 9.7741563e-39
-5.4102597 17.780851 1.3060045 1.0049659e-38
-5.4096365 17.783094 1.3059108 1.0233327e-38
-5.4056454 17.782425 1.3063966 1.0232611e-38
-5.4008169 17.781013 1.3070278 1.0323014e-38
-5.4001985 17.783239 1.3069348 1.0139342e-38
-5.3961444 17.782469 1.3074346 1.0140415e-38
-5.3955278 17.784687 1.3073419 9.9567427e-39
-5.3916249 17.784021 1.3078178 1.0048219e-38
-5.3876266 17.783255 1.3083117 1.0140415e-38
-5.3870139 17.785458 1.3082194 1.032373e-38
-5.3864012 17.787663 1.3081273 1.0139339e-38
-5.3857889 17.789867 1.3080351 9.5861679e-39
-5.3809881 17.788338 1.3086718 9.0337158e-39
-5.3803782 17.790533 1.3085799 8.8493273e-39
-5.3797679 17.792728 1.3084882 8.4816308e-39
-5.3791575 17.794924 1.3083965 8.5745467e-39
-5.3751121 17.794018 1.3089051 9.1288065e-39
-5.3745041 17.796206 1.3088139 1.0513542e-38
-5.3706055 17.795406 1.3092988 1.226634e-38
-5.3699994 17.797586 1.3092077 1.3556722e-38
-5.3660126 17.796679 1.3097103 1.3834388e-38
-5.3654084 17.798851 1.3096194 1.5123687e-38
-5.3614502 17.797943 1.310119 1.5861251e-38
-5.3575187 17.797039 1.3106151 1.7150192e-38
-5.4341221 17.778528 1.3012062 4.4290084e-39
-5.4334879 17.780811 1.3011107 4.5204936e-39
-5.4285698 17.779486 1.3017551 5.0740247e-39
-5.4211349 17.776009 1.3028365 5.9956152e-39
-5.4205074 17.778267 1.302742 6.6413364e-39
-5.4156923 17.776964 1.3033732 8.5774306e-39
-5.4150672 17.779215 1.3032792 9.0373185e-39
-5.4144416 17.781464 1.3031851 9.4975694e-39
-5.4104223 17.7808 1.3036813 1.0050014e-38
-5.4097986 17.783043 1.3035874 1.0509914e-38
-5.4058075 17.782373 1.3040807 1.060139e-38
