# .PCD v0.7 - Point Cloud Data file format
VERSION 0.7
FIELDS x y z rgb
SIZE 4 4 4 4
TYPE F F F F
COUNT 1 1 1 1
WIDTH 1063
HEIGHT 1
VIEWPOINT 0 0 0 1 0 0 0
POINTS 1063
DATA ascii
-4.8445292 11.917379 0.33003634 1.4473275e-38
-4.8545537 12.098794 0.30617186 1.4381438e-38
-4.8686175 12.293198 0.30507836 1.4381799e-38
-4.8846412 12.507776 0.29432729 1.4473278e-38
-4.9011049 12.732229 0.37851438 1.4195966e-38
-4.9214702 12.923738 0.33961895 1.4011936e-38
-4.9317813 13.105087 0.31036946 1.3827907e-38
-4.9451571 13.292599 0.28492078 1.373607e-38
-4.9587741 13.485844 0.3024452 1.3828624e-38
-5.0046287 13.741173 0.27587846 1.4197414e-38
-4.9715376 13.743428 0.38063148 1.4011938e-38
-5.0014954 13.909105 0.29467309 1.419777e-38
-4.9861078 13.921199 0.34831184 1.4196328e-38
-5.0038447 14.167056 0.35621652 1.4473271e-38
-4.9970212 14.156074 0.3734965 1.4473271e-38
-5.0146556 14.324969 0.36908138 1.4749863e-38
-4.9954834 14.225679 0.35511193 1.4658023e-38
-5.0274835 14.514643 0.33175835 1.4934253e-38
-5.0418806 14.710999 0.30316031 1.5119004e-38
-5.0540328 14.890389 0.30105323 1.5487427e-38
-12.461959 15.138656 0.25518247 8.5713139e-39
-12.355048 15.090544 0.26727337 8.3876485e-39
-12.085947 15.085374 0.25487348 9.032662e-39
-11.915068 15.095528 0.31281379 9.67803e-39
-11.677472 15.118391 0.34620023 1.032376e-38
-11.506512 15.140866 0.30644724 1.0508155e-38
-11.297505 15.178685 0.29878151 1.0692545e-38
-11.085845 15.187467 0.34823009 1.023192e-38
-10.913839 15.192822 0.34830561 4.9760375e-39
-10.76413 15.199761 0.21960355 5.2519111e-39
-10.48362 15.171717 0.30193454 1.1697274e-38
-10.302727 15.165814 0.30560338 1.1054078e-38
-10.128406 15.174536 0.31012657 8.6598998e-39
-5.0729222 15.128212 0.37955889 1.5487429e-38
-11.317413 15.207066 0.34347019 1.0324125e-38
-11.094778 15.20805 0.31371009 1.0878014e-38
-10.888659 15.219969 0.27897093 7.0969055e-39
-10.700739 15.22741 0.28426108 4.6998149e-39
-10.510545 15.235794 0.28896117 6.6315833e-39
-10.394292 15.292147 0.22963417 4.7909189e-39
-9.9619093 15.212737 0.32822743 1.2533551e-38
-9.6411877 15.32252 0.28952464 1.1980743e-38
-9.5807199 15.343872 0.31378642 1.2073296e-38
-9.2555742 15.396289 0.37541118 1.2626456e-38
-9.0932503 15.39604 0.2970331 1.115024e-38
-8.9242153 15.396137 0.36829326 1.031399e-38
-8.7438202 15.394199 0.30814505 1.3267123e-38
-8.5542698 15.392808 0.33231708 1.4464948e-38
-5.0849805 15.30196 0.34394744 1.5487788e-38
-9.4063339 15.405617 0.21268274 1.5025347e-38
-9.2318611 15.4516 0.38170782 1.2442077e-38
-9.1501369 15.452934 0.37283432 1.2718296e-38
-8.9134083 15.409839 0.37176168 8.3804108e-39
-8.7831507 15.414177 0.38998663 1.30795e-38
-8.4204836 15.4463 0.37181279 1.4371319e-38
-8.3556833 15.451653 0.37240186 1.4094729e-38
-8.1088257 15.466387 0.33124766 1.3818491e-38
-7.8971176 15.486478 0.31242463 1.3448636e-38
-7.7517724 15.499582 0.35297993 1.4831199e-38
-7.5651631 15.515887 0.38806629 1.381598e-38
-7.3694205 15.522593 0.3859067 1.5015591e-38
-5.1010733 15.506385 0.30126855 1.548779e-38
-5.105546 15.678154 0.30539146 1.5488508e-38
-4.4486489 5.5714464 0.58852047 1.4840974e-38
-4.4576526 5.7146974 0.56276876 1.4933171e-38
-4.4733162 5.9491749 0.57816744 1.5025011e-38
-4.4852538 6.1586218 0.58031654 1.5025005e-38
-4.4978747 6.3760977 0.59022272 1.4841334e-38
-4.5042615 6.5230808 0.56268698 1.4656944e-38
-4.5175223 6.7545691 0.57964802 1.4564386e-38
-4.5256233 6.9062243 0.54992449 1.4471834e-38
-4.5415864 7.1718988 0.58447844 1.4103771e-38
-4.5508757 7.3250494 0.5548318 1.4195607e-38
-4.5617714 7.565093 0.57635522 1.4194886e-38
-4.5712705 7.727293 0.5665046 1.4378918e-38
-4.6015468 7.9752154 0.52108312 1.4565106e-38
-4.5820651 7.9650168 0.57500237 1.4563315e-38
-4.6009569 8.1686792 0.54679132 1.4840261e-38
-4.5926542 8.1249504 0.56773299 1.4839902e-38
-4.6063643 8.3352451 0.5354439 1.5209042e-38
-4.5969982 8.2532711 0.53698033 1.5024652e-38
-4.6160169 8.5647106 0.585585 1.5116843e-38
-4.5924101 8.5041847 0.53196651 1.5211553e-38
-4.6266937 8.7128658 0.55970347 1.5393069e-38
-4.5945506 8.659688 0.44173443 1.5211916e-38
-4.6409683 8.9039478 0.51657438 1.5485264e-38
-4.657094 9.1504002 0.57820725 1.530087e-38
-4.668447 9.3070173 0.54768145 1.5208679e-38
-4.6866322 9.5696182 0.58791971 1.4655148e-38
-4.6973915 9.7163982 0.56370044 1.4379637e-38
-4.7085471 9.9036932 0.52521122 1.428744e-38
-4.72328 10.100966 0.50030965 1.410341e-38
-4.7365632 10.296926 0.49538621 1.4103049e-38
-4.7512856 10.561965 0.58058131 1.3826465e-38
-4.7586989 10.698038 0.56799924 1.391866e-38
-4.8069162 10.941454 0.46976835 1.4381081e-38
-4.7745047 10.905785 0.52579582 1.4103771e-38
-4.8057461 11.157111 0.42977113 1.4013022e-38
-4.7913542 11.1598 0.58286607 1.4380713e-38
-4.8034477 11.323576 0.55878496 1.4565107e-38
-4.7973943 11.283492 0.56180209 1.4472912e-38
-4.8146276 11.50394 0.5138377 1.4657303e-38
-4.7985878 11.450277 0.50240642 1.4658746e-38
-4.8274441 11.700441 0.49662271 1.4842057e-38
-4.7943764 11.712923 0.45537567 1.484278e-38
-4.8409834 11.900326 0.50397491 1.4934613e-38
-4.798492 11.803494 0.57199544 1.4751312e-38
-4.8593369 12.169323 0.58716691 1.4933534e-38
-4.8722963 12.318878 0.55762821 1.4841338e-38
-4.8857708 12.501742 0.52652121 1.4657306e-38
-4.9003263 12.694372 0.49515697 1.4473272e-38
-4.9125152 12.886068 0.50468159 1.4381434e-38
-4.9300056 13.171227 0.58629286 1.3919739e-38
-4.9400063 13.324487 0.56408316 1.4011578e-38
-4.9521136 13.501968 0.53196222 1.4103771e-38
-4.9704208 13.749949 0.5789932 1.419597e-38
-5.0091171 13.88658 0.58829778 1.4751301e-38
-4.9807696 13.911306 0.54795617 1.4472559e-38
-5.0023575 14.166271 0.47349387 1.4657665e-38
-4.9908733 14.086905 0.51439703 1.4749503e-38
-5.0128627 14.297532 0.50591356 1.5026449e-38
-4.997695 14.240947 0.51799369 1.5026447e-38
-5.0269165 14.569044 0.5847913 1.5578905e-38
-4.9969358 14.458267 0.54622471 1.4566914e-38
-5.0381098 14.716685 0.55769747 1.5763298e-38
-5.0541248 14.90916 0.52120316 1.5947686e-38
-12.639542 15.149178 0.55135018 8.8475323e-39
-12.503104 15.10519 0.53912848 8.5716754e-39
-12.365273 15.08578 0.50747079 8.6645955e-39
-12.063435 15.096502 0.52169269 9.3099692e-39
-11.863331 15.108148 0.47405067 1.0138295e-38
-11.684926 15.119192 0.46584561 1.0692183e-38
-11.492332 15.140084 0.48127919 1.0969849e-38
-11.312875 15.176878 0.50983244 1.1154602e-38
-11.141286 15.190022 0.47530133 1.1062408e-38
-10.943872 15.193135 0.47127631 4.7001765e-39
-10.480302 15.171125 0.4955222 1.2433033e-38
-10.3223 15.161974 0.49302319 1.1329581e-38
-10.118675 15.181048 0.51552111 9.1208793e-39
-5.0681219 15.101821 0.50200516 1.5856211e-38
-12.646441 15.22468 0.56839913 5.1604217e-39
-12.513477 15.225372 0.57852954 7.2805583e-39
-12.393432 15.212654 0.48743653 9.2155987e-39
-11.200836 15.205715 0.41501647 1.1062055e-38
-11.097468 15.209138 0.53091681 1.1523745e-38
-10.889787 15.218047 0.51913542 6.452255e-39
-10.679854 15.237062 0.49606243 4.7923651e-39
-10.510182 15.235767 0.49490482 7.5528109e-39
-10.088611 15.201658 0.52807963 9.3045489e-39
-9.6134043 15.335627 0.54263663 1.1981458e-38
-9.547802 15.349669 0.54558367 1.170487e-38
-9.3471994 15.395775 0.51679999 1.1612672e-38
-8.9208097 15.397162 0.5020743 1.0590928e-38
-8.7299299 15.397469 0.45209783 1.3264967e-38
-8.5469923 15.390711 0.47870693 1.4095444e-38
-5.0850463 15.308449 0.49428403 1.5764378e-38
-9.4006138 15.402587 0.45230836 1.1427564e-38
-9.2354774 15.447373 0.49631089 1.2073653e-38
-9.1092386 15.451769 0.50968641 1.1150255e-38
-8.9134331 15.426717 0.51532704 9.4874772e-39
-8.7055407 15.425892 0.51521462 1.1511818e-38
-8.5188246 15.440324 0.54793131 1.1143034e-38
-8.354248 15.454782 0.58109885 1.1788757e-38
-8.1224585 15.473166 0.54524839 1.3539752e-38
-7.9415355 15.48895 0.57639575 1.3631222e-38
-7.6997924 15.501334 0.50991172 1.4831562e-38
-7.4956775 15.526912 0.50405115 1.4277307e-38
-7.3100905 15.540335 0.53961498 1.501487e-38
-7.1219273 15.557393 0.57615697 1.3081654e-38
-6.9200201 15.562194 0.57186258 1.5936825e-38
-6.7896328 15.56634 0.59544951 1.5846071e-38
-5.0959687 15.488094 0.50464422 1.5672901e-38
-5.1063066 15.692222 0.49836966 1.5672905e-38
-5.112596 15.801957 0.47117901 1.5397395e-38
-4.4292002 5.1477799 0.77867949 1.4655864e-38
-4.4448652 5.3851538 0.79124814 1.4841693e-38
-4.4535937 5.5793095 0.79303437 1.5393429e-38
-4.4571886 5.7245917 0.77104264 1.5578182e-38
-4.47156 5.95578 0.77968663 1.5762572e-38
-4.4818201 6.1755881 0.78873873 1.5578182e-38
-4.4900961 6.3283291 0.76981634 1.5301955e-38
-4.50109 6.5059552 0.73441786 1.5117564e-38
-4.5100679 6.7353163 0.77526593 1.4656224e-38
-4.5232072 6.9091382 0.74103844 1.4471831e-38
-4.5357423 7.1582532 0.78091377 1.4009781e-38
-4.5426474 7.3097095 0.75301093 1.3918302e-38
-4.5633788 7.5651259 0.78415537 1.3825746e-38
-4.6036129 7.7837758 0.71785313 1.3921177e-38
-4.5666666 7.7118959 0.75569195 1.4010141e-38
-4.6017985 7.9802232 0.6669541 1.4381072e-38
-4.5764627 7.9020457 0.71560258 1.4379284e-38
-4.6013331 8.1723385 0.75986451 1.4747701e-38
-4.5943656 8.1332664 0.77783912 1.4563668e-38
-4.6040688 8.3364573 0.72719711 1.5024646e-38
-4.5969286 8.2642746 0.75734758 1.4932451e-38
-4.6208539 8.5854788 0.79038119 1.5208675e-38
-4.5972891 8.4494104 0.62049115 1.5118639e-38
-4.6351981 8.7277527 0.76829964 1.5393069e-38
-4.5927124 8.6273079 0.606305 1.5211913e-38
-4.6426897 8.903348 0.73245901 1.5485623e-38
-4.6537519 9.1433783 0.77688026 1.5484906e-38
-4.6610503 9.3049421 0.74789226 1.5300873e-38
-4.6761751 9.4994106 0.7085228 1.4932091e-38
-4.6941729 9.700963 0.70035529 1.4564027e-38
-4.7069087 9.9011497 0.6980741 1.4379636e-38
-4.7191396 10.142853 0.77994502 1.3733909e-38
-4.8015718 10.336819 0.66807556 1.5580334e-38
-4.729126 10.304012 0.7444011 1.3733908e-38
-4.7511697 10.562707 0.76979494 1.3641719e-38
-4.8022666 10.719934 0.66944146 1.4843131e-38
-4.7613211 10.726677 0.77132511 1.3918659e-38
-4.8040199 10.958544 0.67894983 1.401301e-38
-4.7708311 10.904186 0.73612237 1.42878e-38
-4.8061409 11.085313 0.75422513 1.4013011e-38
-4.7827864 11.093426 0.70654047 1.4565106e-38
-4.8051782 11.339865 0.69737536 1.493425e-38
-4.7959051 11.24834 0.70310867 1.4841694e-38
-4.8115849 11.494156 0.69947892 1.5303034e-38
-4.7979712 11.428038 0.74450606 1.5211196e-38
-4.8282285 11.731259 0.77574998 1.5486706e-38
-4.7968988 11.667151 0.73621434 1.5303757e-38
-4.8394737 11.90779 0.73922449 1.557818e-38
-4.796761 11.847572 0.63102192 1.5027897e-38
-4.852077 12.098546 0.70687228 1.5394868e-38
-4.8685112 12.298735 0.69812846 1.5211554e-38
-4.8832946 12.494859 0.6991697 1.5119003e-38
-4.9031949 12.739596 0.77987975 1.4472913e-38
-4.9112363 12.907518 0.74629021 1.4288523e-38
-4.9327312 13.173769 0.78810745 1.3827182e-38
-4.9461813 13.317253 0.76505142 1.3827542e-38
-4.9547367 13.499769 0.72795045 1.4103415e-38
-5.005794 13.66818 0.64797646 1.4105929e-38
-4.9678907 13.699103 0.69825554 1.4288165e-38
-5.0018792 13.954279 0.66507673 1.438216e-38
-4.9778833 13.896074 0.70021749 1.456511e-38
-5.0041451 14.136031 0.76849169 1.502537e-38
-4.9956121 14.125552 0.78612632 1.5117922e-38
-5.0086269 14.30418 0.74218214 1.5394872e-38
-4.999156 14.263072 0.75166988 1.5394512e-38
-5.0214305 14.498441 0.70532012 1.5671461e-38
-4.9951391 14.499464 0.713521 1.5212279e-38
-5.0334129 14.696369 0.70037377 1.6040243e-38
-5.0550776 14.912981 0.6978758 1.622535e-38
-12.645539 15.15671 0.70889056 8.6635011e-39
-12.496887 15.120908 0.69646865 8.4794798e-39
-12.34082 15.0717 0.70710272 9.0337368e-39
-12.071894 15.088355 0.70954978 1.004717e-38
-11.88297 15.114352 0.68563747 1.0507072e-38
-11.674699 15.142731 0.68590015 1.1060246e-38
-11.476815 15.164977 0.71527678 1.1522301e-38
-11.310317 15.183542 0.69883013 1.1799247e-38
-11.118766 15.188024 0.67304951 1.0508868e-38
-10.882213 15.195913 0.63691825 4.9753158e-39
-10.492335 15.171989 0.69756347 1.3262071e-38
-10.307924 15.177246 0.70124537 1.3079849e-38
-10.116283 15.190793 0.69667512 9.0286753e-39
-5.0680418 15.097856 0.69445968 1.6225712e-38
-12.907707 15.22782 0.78753108 3.8707745e-39
-12.637488 15.21554 0.72952867 5.9898279e-39
-12.508802 15.223704 0.66907173 7.8333789e-39
-12.387666 15.252248 0.68503588 8.1096113e-39
-11.27261 15.204315 0.67301953 1.1523015e-38
-11.090373 15.210752 0.68914765 1.2076198e-38
-10.859846 15.223614 0.68127722 5.8976364e-39
-10.689831 15.243995 0.73523885 5.3437368e-39
-10.496084 15.246766 0.69580364 7.8286846e-39
-10.104682 15.204621 0.72197998 7.7379351e-39
-9.9887514 15.223603 0.77349788 1.0505245e-38
-8.9272861 15.395289 0.68899804 1.0406537e-38
-8.753788 15.387169 0.67124677 1.2526311e-38
-8.5366831 15.395696 0.70050752 1.3172755e-38
-5.0821123 15.288726 0.70606035 1.631791e-38
-9.241745 15.456674 0.77734196 1.2350612e-38
-9.1677399 15.467722 0.78983134 1.2443522e-38
-8.9171085 15.43154 0.69814754 9.2119736e-39
-8.6915865 15.428681 0.69169658 1.1050829e-38
-8.4900198 15.446474 0.70403808 1.0958275e-38
-8.2915955 15.460572 0.70043713 1.1327057e-38
-8.1085997 15.471621 0.73081487 1.1325974e-38
-7.908771 15.493477 0.76774496 1.1325614e-38
-7.7691035 15.510615 0.79044551 1.1417805e-38
-7.5118041 15.525701 0.76133025 1.4182945e-38
-7.3696923 15.538723 0.78487271 1.41833e-38
-7.0925117 15.561844 0.70138848 1.4555335e-38
-6.9013405 15.572631 0.71678424 1.6488548e-38
-6.7108226 15.588258 0.75139993 1.565879e-38
-6.5583744 15.596722 0.78492534 1.658109e-38
-6.3855877 15.599122 0.78731561 1.4090385e-38
-5.1034002 15.553298 0.78231108 1.5854764e-38
-6.6349273 15.602314 0.76277667 1.6120488e-38
-6.5521827 15.606186 0.78032738 1.6396705e-38
-6.3302374 15.614281 0.77770633 1.510705e-38
-5.1084514 15.702723 0.75311059 1.5486706e-38
-5.146842 15.819462 0.6733371 1.6134955e-38
-4.4062257 4.7633958 0.96047693 1.3459472e-38
-4.3963523 4.7113867 0.95272225 1.3275082e-38
-4.4140673 4.979176 0.9742161 1.4013004e-38
-4.4243574 5.1802688 0.97954714 1.4657656e-38
-4.4363532 5.3095942 0.9553808 1.5026081e-38
-4.4481802 5.5251188 0.96833247 1.5671808e-38
-4.4593039 5.7657409 0.98481542 1.6040231e-38
-4.4702311 5.9093504 0.95493317 1.6131711e-38
-4.4821339 6.1693034 0.99036187 1.5579974e-38
-4.4931617 6.3114901 0.96180797 1.5578539e-38
-4.5007296 6.5853 0.99250698 1.4657297e-38
-4.5123739 6.722806 0.97104907 1.4471831e-38
-4.5229979 6.9058938 0.93241578 1.410305e-38
-4.5326867 7.1406322 0.97228712 1.3457681e-38
-4.5450726 7.3072696 0.93644512 1.3457326e-38
-4.5551515 7.5002179 0.90461206 1.3641718e-38
-4.6012144 7.7689705 0.95620513 1.4013371e-38
-4.5662069 7.7239308 0.96037686 1.3458034e-38
-4.6022468 7.9762955 0.88936114 1.4288878e-38
-4.5781708 7.9008141 0.9245249 1.4010852e-38
-4.6015482 8.189517 0.8268922 1.4840259e-38
-4.5881524 8.0952663 0.9002167 1.4655865e-38
-4.6055083 8.3497047 0.94912791 1.5117554e-38
-4.5950584 8.2677135 0.95212781 1.4841324e-38
-4.6121206 8.5777922 0.99025959 1.5301942e-38
-4.5988336 8.4286003 0.89268696 1.557818e-38
-4.6261616 8.7173176 0.96328974 1.5578173e-38
-4.5955162 8.7043352 0.96971405 1.6411535e-38
-4.6382914 8.9063969 0.92736423 1.5761849e-38
-4.6473794 9.0961027 0.89901733 1.5761851e-38
-4.6585131 9.2956362 0.89934367 1.5577819e-38
-4.6784892 9.58109 0.99133784 1.437963e-38
-4.6919236 9.7155056 0.96566188 1.4103399e-38
-4.7041531 9.9025707 0.9267053 1.3918295e-38
-4.7206659 10.158334 0.98417413 1.3089965e-38
-4.7335958 10.310663 0.95326638 1.3273643e-38
-4.805882 10.579722 0.88494837 1.6134587e-38
-4.7457089 10.504737 0.91729736 1.3642069e-38
-4.8045063 10.728645 0.96875203 1.5672534e-38
-4.7557859 10.69574 0.89795339 1.4011212e-38
-4.8079133 10.890849 0.91743833 1.4751295e-38
-4.768497 10.899525 0.90107697 1.4472552e-38
-4.8020144 11.155332 0.87684578 1.4289961e-38
-4.7844615 11.163852 0.98464167 1.4750568e-38
-4.8038836 11.353251 0.94356519 1.5303028e-38
-4.7955489 11.267307 0.96823466 1.5118637e-38
-4.812005 11.502576 0.91869396 1.5671454e-38
-4.799325 11.417813 0.96925956 1.5763651e-38
-4.8217692 11.694449 0.89792317 1.6040238e-38
-4.7979646 11.697208 0.91486013 1.6133521e-38
-4.8353777 11.897631 0.90071267 1.622463e-38
-4.7991157 11.995565 0.85974628 1.6226434e-38
-4.8483219 12.095104 0.90136105 1.6224989e-38
-4.8656769 12.318995 0.95893401 1.5395942e-38
-4.8825426 12.503798 0.92337382 1.5026444e-38
-4.8942232 12.791968 0.95057946 1.4013367e-38
-4.9105253 12.909066 0.94330251 1.3828619e-38
-4.9259648 13.098238 0.90895015 1.3735707e-38
-4.9408188 13.298567 0.8988362 1.3827185e-38
-4.9529285 13.497044 0.90245903 1.3919741e-38
-5.0045743 13.727007 0.87657064 1.4936412e-38
-4.9639044 13.731434 0.95574951 1.3828619e-38
-5.004745 13.909836 0.91293466 1.4382521e-38
-4.9777737 13.899967 0.92315829 1.4381075e-38
-5.0013418 14.144489 0.85819227 1.5118283e-38
-4.9913106 14.09303 0.90016586 1.5117924e-38
-5.006135 14.309242 0.89200211 1.5763655e-38
-4.9970818 14.247063 0.91271091 1.5671459e-38
-5.0174656 14.492561 0.90274912 1.6224993e-38
-5.0294566 14.690129 0.8972742 1.6685971e-38
-5.0502424 14.905694 0.9042685 1.6871081e-38
-12.896321 15.188024 0.93432772 5.0685946e-39
-12.681413 15.158628 0.90440464 8.018852e-39
-12.485493 15.101732 0.88606495 8.5727516e-39
-12.332209 15.054578 0.88044864 9.7709403e-39
-12.072429 15.080422 0.86924034 1.0600704e-38
-11.871722 15.104736 0.90051132 1.1430107e-38
-11.648129 15.132482 0.91654885 1.2075477e-38
-11.493563 15.15821 0.89615512 1.2351705e-38
-11.310025 15.184439 0.88401866 1.2720487e-38
-11.111573 15.189837 0.89300883 1.115388e-38
-10.942236 15.190877 0.93140441 5.896563e-39
-10.487677 15.174842 0.89505696 1.4000713e-38
-10.299304 15.181355 0.89348501 1.372593e-38
-10.111452 15.190633 0.89621323 8.5694964e-39
-5.0638623 15.146671 0.96228874 1.6409372e-38
-12.902103 15.211 0.86546707 4.5157782e-39
-12.725114 15.214983 0.88015032 5.3448214e-39
-12.497488 15.201548 0.85081744 9.4936121e-39
-11.43783 15.211414 0.81903279 1.115316e-38
-11.348714 15.207327 0.84870267 1.1798531e-38
-11.105494 15.208235 0.91735053 1.2905599e-38
-10.869138 15.226889 0.87693197 6.5430115e-39
-10.680707 15.240554 0.88953024 5.7125193e-39
-10.505513 15.238168 0.90117204 8.8442756e-39
-10.316954 15.208001 0.96873939 1.4369851e-38
-10.117592 15.204102 0.92715317 8.3843807e-39
-9.502388 15.38006 0.9400084 1.2716859e-38
-8.9283733 15.397016 0.86237001 1.0682755e-38
-8.7468491 15.391296 0.9527117 1.2066036e-38
-8.5187492 15.3944 0.92957979 1.3082015e-38
-5.0795074 15.308046 0.93048316 1.6224626e-38
-9.4131908 15.409428 0.9224627 1.2532825e-38
-9.23351 15.465502 0.90539283 1.1152779e-38
-9.0980835 15.476057 0.90764719 1.2167292e-38
-8.9411631 15.482667 0.93329811 1.0323734e-38
-8.692605 15.432339 0.90106839 1.0497287e-38
-8.4949141 15.44758 0.89583218 1.0404372e-38
-8.2988091 15.463014 0.89839125 1.0497291e-38
-8.0972328 15.479437 0.90115082 1.0680599e-38
-7.8892164 15.500461 0.89889854 1.1233407e-38
-7.7014937 15.517568 0.90911418 1.1879132e-38
-7.5700727 15.536439 0.93141013 1.1786574e-38
-7.3025227 15.548084 0.90597737 1.4921214e-38
-7.1665616 15.564062 0.93963146 1.3356424e-38
-6.8974175 15.578119 0.90056443 1.7318299e-38
-6.7211332 15.590775 0.89067662 1.6857322e-38
-6.5608206 15.598392 0.85990953 1.6766205e-38
-5.0946875 15.501205 0.90208811 1.622355e-38
-6.6374516 15.604261 0.92191279 1.7226107e-38
-6.4949884 15.612512 0.90437639 1.6858038e-38
-6.3434501 15.63048 0.92736107 1.4831185e-38
-6.1208467 15.641631 0.92250836 1.6398869e-38
-5.1017652 15.685486 0.89761627 1.5855126e-38
-5.0919318 15.819812 0.98082131 1.6595917e-38
-4.4089355 4.7613001 1.0959911 1.3735343e-38
-4.3983822 4.7188716 1.077386 1.3551309e-38
-4.4198775 4.9850216 1.0889121 1.4289235e-38
-4.3991308 4.8352575 1.1225377 1.4103766e-38
-4.4284468 5.1874242 1.076908 1.5026799e-38
-4.4354353 5.2940183 1.1014479 1.5671452e-38
-4.4491773 5.5150433 1.0981907 1.6409375e-38
-4.4614615 5.7637749 1.0955645 1.6685961e-38
-4.4675832 5.8916116 1.0999901 1.6869638e-38
-4.4833159 6.1513824 1.0967661 1.6317179e-38
-4.4896207 6.2915435 1.100533 1.6223909e-38
-4.5025868 6.5902209 1.0579481 1.4749853e-38
-4.5110207 6.6937265 1.1006725 1.4656583e-38
-4.5194969 6.8956289 1.0992562 1.4195249e-38
-4.5341477 7.1338696 1.0977795 1.3366208e-38
-4.5406709 7.2891665 1.0994338 1.3365491e-38
-4.5513358 7.4927664 1.1008911 1.3549523e-38
-4.6031675 7.7742286 1.1184649 1.4106642e-38
-4.5665722 7.720191 1.0982529 1.3550234e-38
-4.6038442 7.9766731 1.0454066 1.4197764e-38
-4.5733757 7.8910913 1.0988343 1.4195245e-38
-4.6014476 8.1609421 1.0510014 1.5209762e-38
-4.5846944 8.0945177 1.1021801 1.5024648e-38
-4.6047373 8.3286791 1.1028718 1.5578534e-38
-4.5972581 8.2652082 1.0803086 1.5301947e-38
-4.6151757 8.5759974 1.0948644 1.5947313e-38
-4.5992894 8.4473677 1.1687809 1.6407219e-38
-4.6225901 8.6945515 1.1002576 1.6223546e-38
-4.6320596 8.8936787 1.0986654 1.6591611e-38
-4.6441975 9.0948009 1.1008413 1.6683808e-38
-4.6558943 9.2947092 1.098654 1.6315385e-38
-4.681457 9.5833235 1.0892054 1.465729e-38
-4.6894975 9.6930704 1.1004301 1.4472185e-38
-4.6993198 9.8941936 1.0983754 1.4103047e-38
-4.7225132 10.152364 1.0979747 1.327436e-38
-4.7299576 10.292872 1.0998709 1.336584e-38
-4.805397 10.504856 1.1766922 1.6964349e-38
-4.7408981 10.494043 1.0992485 1.3734266e-38
-4.8052602 10.742782 1.1809781 1.5212631e-38
-4.7533178 10.694502 1.100075 1.4195246e-38
-4.805944 10.933061 1.1723102 1.4566905e-38
-4.7668438 10.899431 1.0990334 1.4657303e-38
-4.8040648 11.126241 1.0842693 1.4382158e-38
-4.7881083 11.167596 1.0959884 1.521119e-38
-4.8020306 11.355663 1.071321 1.5856202e-38
-4.7954931 11.282587 1.105808 1.5764005e-38
-4.8077006 11.50703 1.0941361 1.6593053e-38
-4.7983141 11.4298 1.1407254 1.6593051e-38
-4.8193283 11.697801 1.0997937 1.6962195e-38
-4.8329577 11.894185 1.0982111 1.705475e-38
-4.797945 11.829697 1.1288494 1.6320433e-38
-4.8465118 12.095843 1.103635 1.705475e-38
-4.8700433 12.318846 1.0984601 1.6040954e-38
-4.8789029 12.493107 1.0993937 1.5579618e-38
-4.8940639 12.763275 1.0352272 1.4565463e-38
-4.9129958 12.902787 1.0987266 1.4104847e-38
-4.922349 13.091425 1.0998914 1.3735708e-38
-4.937171 13.298152 1.101921 1.3827188e-38
-5.0098424 13.457789 1.0477623 1.6780322e-38
-4.9511476 13.495041 1.0974337 1.3920102e-38
-5.0111213 13.718945 1.1336709 1.5120802e-38
-4.9670963 13.733674 1.0985588 1.4012651e-38
-5.0135422 13.910294 1.1648935 1.4383596e-38
-4.9740667 13.892983 1.100165 1.4565469e-38
-5.0014448 14.187807 1.1221361 1.5948042e-38
-4.9869356 14.098014 1.0996358 1.5578902e-38
-5.0055199 14.330294 1.0910194 1.6501579e-38
-4.9957633 14.250435 1.1122237 1.6316826e-38
-5.0154266 14.500901 1.1009567 1.7054752e-38
-4.998601 14.414453 1.1123999 1.6778526e-38
-5.0258374 14.694974 1.0995493 1.7516091e-38
-12.723629 14.973279 1.1766777 9.5869092e-39
-5.0456553 14.904793 1.0984576 1.7701199e-38
-12.878071 15.125843 1.1729382 7.2820044e-39
-12.681433 15.116462 1.1298985 7.9273752e-39
-12.496724 15.071223 1.0817153 8.8493385e-39
-12.330068 15.063343 1.0552195 9.8631331e-39
-12.055829 15.11377 1.1277652 1.0416314e-38
-11.865065 15.131845 1.0947306 1.1246076e-38
-11.692012 15.149275 1.0956669 1.2075837e-38
-11.526803 15.149719 1.1094646 1.3181825e-38
-11.290641 15.185767 1.1219575 1.3735358e-38
-11.122357 15.192801 1.1130271 1.3092149e-38
-10.485477 15.182838 1.0671566 1.5107048e-38
-10.307384 15.186326 1.1053804 1.4186544e-38
-10.112834 15.192104 1.0806293 8.0166912e-39
-5.0655155 15.147061 1.0980027 1.6962908e-38
-11.252997 15.201497 1.0614941 1.3550967e-38
-11.103597 15.20941 1.0955746 1.3367656e-38
-10.886176 15.228416 1.1190472 7.281294e-39
-10.741003 15.242724 1.0949746 6.4500857e-39
-10.497641 15.249763 1.0989715 9.4892737e-39
-10.382813 15.211864 1.1525495 1.5198883e-38
-10.081881 15.207339 1.1181984 8.6616977e-39
-9.9574356 15.224864 1.1650422 1.1150252e-38
-9.5658474 15.355554 1.1480337 1.1980369e-38
-8.8387632 15.394888 1.0531132 1.2250426e-38
-8.7502708 15.39389 1.042207 1.2158225e-38
-8.5509596 15.395604 1.0409375 1.2895435e-38
-5.0744171 15.295792 1.1010801 1.6869995e-38
-9.4007425 15.401697 1.1567664 1.3178541e-38
-9.2313385 15.471486 1.104609 1.0782916e-38
-9.0941219 15.482268 1.0985764 1.2627553e-38
-8.94907 15.482993 1.0997572 1.0692161e-38
-8.6888285 15.436439 1.099233 1.0221057e-38
-8.4988089 15.448535 1.1030895 1.0496921e-38
-8.3019142 15.465825 1.1024569 1.0497285e-38
-8.0917044 15.485751 1.1039351 1.0589129e-38
-7.889873 15.506098 1.0976278 1.1416715e-38
-7.6967692 15.517316 1.1019871 1.2062437e-38
-7.5817347 15.527143 1.0856444 1.2153911e-38
-7.2961593 15.548711 1.1000947 1.5472576e-38
-7.1658916 15.561792 1.0949113 1.0409431e-38
-6.8940034 15.581613 1.1005794 1.8699786e-38
-6.7384276 15.593143 1.0993819 1.8606511e-38
-6.5442581 15.59789 1.0699066 1.6120844e-38
-5.0872283 15.499371 1.0982674 1.6684529e-38
-6.843307 15.601625 1.166631 1.9619941e-38
-6.6447034 15.606093 1.1028016 1.8607594e-38
-6.4999652 15.613447 1.1024495 1.8055497e-38
-6.3493481 15.62231 1.1109864 1.7411212e-38
-6.1184144 15.635523 1.0967711 1.7595965e-38
-5.0983605 15.692226 1.0993706 1.6039517e-38
-5.1255493 15.817087 1.0826747 1.3919752e-38
-4.4079471 4.7646499 1.2965816 1.3735706e-38
-4.3986149 4.7606325 1.3345636 1.3827903e-38
-4.4215388 4.9929538 1.2882475 1.4749497e-38
-4.3987937 4.8598137 1.3209809 1.4380719e-38
-4.4299679 5.1955957 1.2840798 1.5855489e-38
-4.4334025 5.2931628 1.2992351 1.6500856e-38
-4.4484301 5.5223937 1.2979302 1.7515368e-38
-4.4627042 5.7732353 1.2988749 1.7975987e-38
-4.46562 5.8903136 1.2984425 1.7976349e-38
-4.4834118 6.1571221 1.2974603 1.7330616e-38
-4.4874158 6.2895546 1.2999359 1.6961475e-38
-4.5027723 6.5714793 1.247584 1.5577822e-38
-4.5102148 6.6960912 1.2979422 1.4932814e-38
-4.51968 6.8957019 1.3009082 1.4287446e-38
-4.5337257 7.1431084 1.2979662 1.3273298e-38
-4.5381308 7.2906251 1.299775 1.3181463e-38
-4.5508204 7.4949026 1.2990924 1.3549884e-38
-4.6022558 7.7837505 1.3303244 1.419848e-38
-4.564662 7.7262921 1.298492 1.3550235e-38
-4.6041346 7.9751077 1.3129233 1.456726e-38
-4.5701876 7.8896451 1.3002306 1.4471475e-38
-4.6023908 8.1452312 1.356076 1.5488863e-38
-4.5844498 8.0972919 1.298629 1.5485988e-38
-4.6033063 8.3302412 1.2921549 1.6315743e-38
-4.5979881 8.3033476 1.3112465 1.6315743e-38
-4.6137614 8.5816154 1.2976549 1.7053306e-38
-4.5993509 8.4176922 1.2979409 1.6777082e-38
-4.6177597 8.6925621 1.3000211 1.7329896e-38
-4.6292639 8.8941164 1.2976074 1.769868e-38
-4.64219 9.0933971 1.3010066 1.769868e-38
-4.6521792 9.2924051 1.3004122 1.7238062e-38
-4.6831703 9.5918465 1.2905602 1.5117557e-38
-4.687283 9.6917238 1.2993691 1.4748776e-38
-4.697319 9.8910761 1.2993342 1.428744e-38
-4.8070917 10.067717 1.3512166 1.8623514e-38
-4.7220311 10.159672 1.2985175 1.3366199e-38
-4.8058367 10.267173 1.3517979 1.7978148e-38
-4.7269516 10.292684 1.299374 1.3274007e-38
-4.8082747 10.556119 1.2748857 1.7056546e-38
-4.7393069 10.494958 1.3001484 1.3642431e-38
-4.8057728 10.69833 1.3214519 1.6134588e-38
-4.7512655 10.692691 1.2994108 1.4104129e-38
-4.8033123 10.9418 1.2950623 1.4659101e-38
-4.7627907 10.895345 1.2999794 1.4658382e-38
-4.804491 11.131738 1.3406187 1.419777e-38
-4.7884231 11.175814 1.3018366 1.5948039e-38
-4.8009968 11.372386 1.297031 1.6962191e-38
-4.7923951 11.292821 1.2988746 1.659341e-38
-4.8073263 11.518494 1.2962803 1.7607925e-38
-4.7974429 11.43288 1.3051138 1.7330979e-38
-4.8182192 11.696929 1.3006079 1.8161459e-38
-4.798564 11.637693 1.3285365 1.8163257e-38
-4.8297043 11.89597 1.2994483 1.8254013e-38
-4.8419619 12.094412 1.298537 1.8070339e-38
-4.8706779 12.326932 1.2981004 1.6870717e-38
-4.877336 12.49353 1.3014101 1.622499e-38
-4.8928847 12.700566 1.2962497 1.5303394e-38
-4.9137793 12.913526 1.2997905 1.4197047e-38
-4.92101 13.094776 1.299508 1.373607e-38
-4.9375391 13.300344 1.2994618 1.3735352e-38
-4.95051 13.500872 1.2993287 1.3920102e-38
-5.0090613 13.731537 1.2803192 1.548995e-38
-4.9661522 13.741789 1.2995998 1.4104492e-38
-5.0063429 13.982709 1.3195807 1.3830786e-38
-4.9716077 13.895571 1.2992133 1.4750222e-38
-5.0019379 14.174642 1.3003222 1.5949847e-38
-4.9864202 14.100089 1.2993931 1.5948409e-38
-5.0029874 14.330875 1.2908956 1.7055833e-38
-4.9961381 14.270625 1.3057039 1.6871083e-38
-5.0106149 14.493182 1.302353 1.7884873e-38
-4.9985852 14.436135 1.3226633 1.7701201e-38
-5.0225496 14.696421 1.2995428 1.8438766e-38
-4.9972739 14.616982 1.3758812 1.7149829e-38
-12.721191 14.963173 1.204834 1.0047882e-38
-12.555826 14.997949 1.2562186 1.0324833e-38
-12.329069 14.992936 1.3280287 1.2353501e-38
-5.0391936 14.902976 1.2995814 1.8715713e-38
-12.871012 15.116373 1.2953004 7.5575151e-39
-12.707634 15.119544 1.303984 7.6497093e-39
-12.511883 15.074353 1.3006675 8.7571429e-39
-12.290501 15.051396 1.3166274 1.0785814e-38
-12.096392 15.073541 1.3384091 1.1708132e-38
-11.924023 15.10781 1.2649597 1.1891804e-38
-11.743749 15.12967 1.2818455 1.2721566e-38
-11.504871 15.157862 1.3102645 1.3920111e-38
-11.277231 15.184556 1.3117961 1.4842426e-38
-11.119703 15.192927 1.2973273 1.4197779e-38
-10.996909 15.193241 1.3421144 5.8061639e-39
-10.458534 15.181546 1.2900754 1.6120124e-38
-10.324841 15.18682 1.3018756 1.5569114e-38
-10.06988 15.191352 1.3030084 1.0506324e-38
-5.06393 15.152302 1.2992843 1.7792313e-38
-4.9916291 15.065817 1.2762884 1.7979939e-38
-11.24298 15.207782 1.2758604 1.4381088e-38
-11.087992 15.208845 1.2769494 1.4013025e-38
-10.896384 15.2231 1.3012432 7.0036267e-39
-10.730664 15.235106 1.3117477 7.0954538e-39
-10.487777 15.241173 1.2974548 1.1883112e-38
-10.318533 15.219193 1.3091546 1.5292534e-38
-10.081328 15.213985 1.2987783 8.7535346e-39
-9.9537468 15.229239 1.3138556 1.1704507e-38
-9.5163202 15.370411 1.2692469 1.2535698e-38
-8.8162289 15.39572 1.3581073 1.2344788e-38
-8.7510843 15.391772 1.2521776 1.2527383e-38
-8.5777731 15.398847 1.3929232 1.4096516e-38
-5.0698133 15.292947 1.3000617 1.7423173e-38
-9.2271786 15.475863 1.3079755 1.1336811e-38
-9.0936594 15.485352 1.2975615 1.2812306e-38
-8.9477329 15.486976 1.3021507 1.0692522e-38
-8.7026815 15.436815 1.3020892 1.0682392e-38
-8.4997339 15.454103 1.2989824 1.0498005e-38
-8.2991171 15.469034 1.3025769 1.0957902e-38
-8.0993423 15.483897 1.2998579 1.1233048e-38
-7.8890629 15.508456 1.2978332 1.16933e-38
-7.6931043 15.520029 1.3008759 1.28922e-38
-7.5861416 15.525739 1.294857 1.3075152e-38
-7.2936406 15.551533 1.2991307 1.7039183e-38
-7.1756568 15.556933 1.298509 1.5658782e-38
-6.8947086 15.581009 1.2999141 2.0267107e-38
-6.7417555 15.593126 1.3020672 2.0266748e-38
-6.5516748 15.593316 1.3071629 2.0359669e-38
-5.0843763 15.498227 1.2976584 1.6869641e-38
-6.6484785 15.607111 1.298745 2.0267469e-38
-6.4939284 15.614717 1.2995532 1.9990879e-38
-6.3536839 15.621764 1.2991736 1.9438428e-38
-6.1256742 15.630981 1.2996151 1.916293e-38
-5.0952601 15.692774 1.3003311 1.6039879e-38
-4.406589 4.7688203 1.4954854 1.3736431e-38
-4.3983994 4.7613983 1.5169145 1.3828268e-38
-4.4199967 4.9957199 1.4643567 1.5026811e-38
-4.398735 4.853549 1.5022199 1.4381802e-38
-4.423574 5.0929818 1.4990944 1.5856572e-38
-4.4332075 5.2957354 1.4986278 1.7331702e-38
-4.4482923 5.5282588 1.4983944 1.8714995e-38
-4.462316 5.7768226 1.4988688 1.945256e-38
-4.4654207 5.8895164 1.4998236 1.9544399e-38
-4.4827476 6.1631289 1.4990511 1.8530244e-38
-4.4872012 6.29037 1.4993169 1.7976711e-38
-4.4998899 6.4927974 1.5002996 1.6870364e-38
-4.5104795 6.7022409 1.498713 1.5117571e-38
-4.5201631 6.8952742 1.5000228 1.428781e-38
-4.5326591 7.1480675 1.4966178 1.2997796e-38
-4.5373297 7.2921939 1.501218 1.2997794e-38
-4.5504961 7.4980302 1.5000194 1.3458414e-38
-4.6036253 7.7906566 1.4622632 1.438287e-38
-4.5624762 7.7310729 1.4999173 1.3734994e-38
-4.6029181 7.9717283 1.4975466 1.4843494e-38
-4.5688381 7.8914719 1.4992554 1.465695e-38
-4.6030688 8.1614885 1.4494905 1.5857643e-38
-4.5829306 8.0951328 1.4996816 1.6039526e-38
-4.6021638 8.3473167 1.4891758 1.733062e-38
-4.5970678 8.3136005 1.5042739 1.7238425e-38
-4.6105618 8.5845652 1.5003855 1.8436968e-38
-4.5984683 8.4256325 1.5164406 1.8068188e-38
-4.614697 8.6920223 1.4997016 1.8713915e-38
-4.5996385 8.6498814 1.498203 1.853132e-38
-4.6268687 8.8937225 1.4991052 1.9174534e-38
-4.6404309 9.0962038 1.5006382 1.8990503e-38
-4.6501589 9.2952423 1.5007982 1.8252935e-38
-4.6818213 9.5956335 1.4649236 1.5486705e-38
-4.6862187 9.6922197 1.5001963 1.502573e-38
-4.6966949 9.8920765 1.4993458 1.438036e-38
-4.7205105 10.163631 1.4995767 1.3274369e-38
-4.7256064 10.29346 1.498896 1.3182176e-38
-4.8044248 10.588174 1.5495514 1.7148384e-38
-4.7382836 10.497254 1.5003837 1.3458764e-38
-4.8103943 10.768358 1.5117199 1.5581059e-38
-4.7471519 10.705251 1.5038469 1.3919742e-38
-4.8015947 10.919501 1.4668026 1.4474354e-38
-4.759438 10.909109 1.4937 1.5580341e-38
-4.80865 11.079556 1.5144383 1.4382514e-38
-4.7845898 11.175653 1.4982657 1.6502656e-38
-4.8006935 11.373833 1.4128021 1.714803e-38
-4.7901888 11.292798 1.5003635 1.7424255e-38
-4.8071499 11.532016 1.499458 1.8991584e-38
-4.7964129 11.436948 1.4971664 1.8530604e-38
-4.8168006 11.693653 1.5011011 1.9821343e-38
-4.7986379 11.669627 1.5140752 1.9914974e-38
-4.8292675 11.895052 1.4984341 1.9914257e-38
-4.7858481 11.906731 1.5937316 1.9454368e-38
-4.8399062 12.097599 1.5003731 1.9637668e-38
-4.8699341 12.330805 1.4991606 1.7793038e-38
-4.8773832 12.492685 1.4985574 1.6778887e-38
-4.8925519 12.698512 1.502284 1.567254e-38
-4.9132299 12.918179 1.4997151 1.419777e-38
-4.9213505 13.093998 1.4974653 1.3644599e-38
-4.937274 13.296844 1.5011164 1.3552044e-38
-4.9503293 13.494158 1.5011631 1.3736433e-38
-5.0060549 13.717963 1.4473292 1.4753462e-38
-4.9636559 13.744904 1.4983934 1.4105575e-38
-5.0062609 13.925863 1.5330201 1.3922983e-38
-4.9699149 13.892918 1.4996393 1.4934977e-38
-5.0039673 14.168769 1.48711 1.5398114e-38
-4.9848394 14.09818 1.5011355 1.6317913e-38
-5.0035257 14.342487 1.4960136 1.797779e-38
-4.9959321 14.274502 1.5047113 1.7609009e-38
-5.0093527 14.49865 1.4961957 1.8900106e-38
-4.9989109 14.415294 1.5237018 1.8623521e-38
-5.0181737 14.696273 1.5015205 1.9914616e-38
-4.9941187 14.62123 1.501502 1.761117e-38
-12.439537 14.992093 1.5837008 1.1705968e-38
-5.0328159 14.903993 1.4979868 2.0283399e-38
-12.862666 15.126634 1.4842612 7.3727567e-39
-12.720162 15.104395 1.5168639 7.3738385e-39
-12.507107 15.0785 1.4935578 8.388366e-39
-12.294365 15.070272 1.4585525 1.0140447e-38
-12.097412 15.079386 1.4734391 1.170777e-38
-11.941955 15.090452 1.4901661 1.2814118e-38
-11.718281 15.120674 1.5008329 1.3920108e-38
-11.497869 15.158599 1.4900321 1.4658035e-38
-11.308434 15.178507 1.5291235 1.5673265e-38
-11.121189 15.191844 1.5218587 1.5859815e-38
-10.45951 15.191148 1.5013429 1.7227202e-38
-10.284869 15.190684 1.4975829 1.6315371e-38
-10.109742 15.192686 1.495108 7.9262878e-39
-5.0601578 15.154692 1.4976952 1.8714993e-38
-11.256497 15.204453 1.5070614 1.5395601e-38
-11.10669 15.210066 1.4783049 1.6042052e-38
-10.89889 15.22828 1.4965734 8.5720328e-39
-10.742139 15.23666 1.4967924 7.3727637e-39
-10.478287 15.24618 1.5021425 1.2711431e-38
-10.313113 15.212475 1.5008333 1.7878364e-38
-10.075656 15.209758 1.4962788 9.4936135e-39
-9.9977427 15.209916 1.5498804 1.1890329e-38
-9.2683573 15.378308 1.4618406 1.0508119e-38
-9.1897898 15.395654 1.4433317 1.0508117e-38
-8.8469362 15.382412 1.5115033 1.3635175e-38
-8.7435455 15.390763 1.4481518 1.3174194e-38
-8.5176401 15.396074 1.4842141 1.3727727e-38
-5.0665278 15.293118 1.5014017 1.8161103e-38
-9.2281208 15.476501 1.504743 1.2536079e-38
-9.090889 15.488217 1.4991621 1.2997061e-38
-8.9432726 15.489622 1.500226 1.0231907e-38
-8.7013483 15.443854 1.502852 1.1052265e-38
-8.4916162 15.456859 1.5015041 1.1144101e-38
-8.2923021 15.470448 1.4963073 1.1143375e-38
-8.0976944 15.485028 1.5002604 1.1972415e-38
-7.8891325 15.510128 1.5004091 1.2155363e-38
-7.6929994 15.521973 1.4988036 1.4091826e-38
-7.5897403 15.52716 1.5027117 1.445989e-38
-7.2938662 15.553345 1.4986613 1.9068926e-38
-7.179172 15.557806 1.4982965 1.7594164e-38
-6.9003305 15.581712 1.5025975 2.2387608e-38
-6.7552447 15.591939 1.4969976 2.2202851e-38
-6.5560331 15.591806 1.4919038 2.2203581e-38
-5.081141 15.49755 1.4986209 1.7238786e-38
-6.6578894 15.606592 1.4985583 2.2295411e-38
-6.4944453 15.616382 1.5007774 2.2111384e-38
-6.3567381 15.622748 1.4980791 2.1282345e-38
-6.1302137 15.630071 1.4976764 2.0915012e-38
-5.0928268 15.695 1.4997683 1.6132802e-38
-5.1619601 15.88861 1.5564518 2.0006813e-38
-5.1767793 16.001289 1.563125 2.0098289e-38
-4.4054785 4.7694249 1.6995951 1.3828633e-38
-4.3984466 4.774775 1.6590872 1.4012664e-38
-4.4156909 4.9621606 1.6692365 1.5211207e-38
-4.3986263 4.8743405 1.6988246 1.493426e-38
-4.4244728 5.0958424 1.6986467 1.640975e-38
-4.3986497 5.0015349 1.7655419 1.6225362e-38
-4.4344959 5.2992988 1.6987969 1.8254021e-38
-4.4499655 5.5316777 1.6975069 2.0282323e-38
-4.4651241 5.7830944 1.694533 2.1296833e-38
-4.4668245 5.8929267 1.6999851 2.1480867e-38
-4.4847922 6.1685429 1.6961036 1.9913181e-38
-4.4882884 6.2910137 1.7007949 1.9083062e-38
-4.500021 6.4919167 1.69872 1.7607573e-38
-4.5117111 6.7062273 1.6990671 1.5302325e-38
-4.5203528 6.8939271 1.6996927 1.438001e-38
-4.5340929 7.1542749 1.6975284 1.2905603e-38
-4.5379586 7.2940969 1.7008035 1.2997438e-38
-4.550034 7.4978728 1.69986 1.3642448e-38
-4.6033068 7.7602587 1.7005175 1.6687056e-38
-4.5627704 7.7358799 1.7000759 1.3827552e-38
-4.6037188 7.9642606 1.7266817 1.6410461e-38
-4.5688071 7.8941503 1.6990404 1.5209766e-38
-4.6011276 8.0960121 1.6654269 1.6502652e-38
-4.5819221 8.0974398 1.6996726 1.6869289e-38
-4.6023617 8.3465681 1.7078453 1.8437331e-38
-4.597187 8.3210621 1.6922804 1.8160744e-38
-4.6099901 8.5874367 1.6931531 1.9820265e-38
-4.598917 8.4416866 1.7004467 1.9543678e-38
-4.6128631 8.6924448 1.7005298 2.055783e-38
-4.5980988 8.6127119 1.6648195 2.0374877e-38
-4.6237264 8.8927689 1.7003284 2.1111004e-38
-4.6380453 9.0934496 1.6992089 2.0742222e-38
-4.6487713 9.2951927 1.6979014 1.9544037e-38
-4.6782074 9.5942068 1.7183743 1.6039883e-38
-4.6862249 9.6933336 1.6996484 1.5394515e-38
-4.6956649 9.8904209 1.7004892 1.4564754e-38
-4.721385 10.167918 1.6968914 1.3090342e-38
-4.7251101 10.293355 1.6997209 1.318218e-38
-4.8076863 10.457129 1.7929882 1.8899385e-38
-4.7368026 10.494925 1.7017343 1.3827551e-38
-4.8071756 10.787411 1.6615357 1.5304466e-38
-4.74968 10.694708 1.698522 1.4934256e-38
-4.8052239 10.890259 1.6548936 1.4751292e-38
-4.759922 10.893659 1.6970526 1.6317547e-38
-4.8056436 11.125812 1.7570585 1.6039168e-38
-4.7857304 11.179225 1.6962349 1.7332062e-38
-4.8014417 11.392331 1.6316503 1.8899744e-38
-4.7892394 11.290565 1.7004449 1.8622803e-38
-4.8059464 11.540554 1.6983179 2.1112083e-38
-4.7953591 11.440505 1.702943 2.0374518e-38
-4.8165121 11.695648 1.6981056 2.1942203e-38
-4.798327 11.61902 1.7245156 2.175817e-38
-4.8274221 11.892484 1.7016507 2.2219148e-38
-4.7958388 11.813983 1.6915388 1.8072153e-38
-4.8387184 12.094951 1.6983918 2.1573777e-38
-4.8710504 12.334239 1.6992446 1.8991944e-38
-4.8783188 12.492312 1.6994022 1.7793041e-38
-4.8927822 12.695175 1.6995901 1.640939e-38
-4.9139495 12.918159 1.6992794 1.4750586e-38
-4.9222827 13.093227 1.7001659 1.4105218e-38
-4.9372663 13.297993 1.6979164 1.3736078e-38
-4.9502048 13.492043 1.6994265 1.3736436e-38
-4.9625292 13.746799 1.6994607 1.4382165e-38
-5.0039783 13.976233 1.6503185 1.3738591e-38
-4.9694643 13.894476 1.6992068 1.5211567e-38
-5.0016999 14.171826 1.6876402 1.6042763e-38
-4.9838228 14.096626 1.7015206 1.6686338e-38
-5.002883 14.351751 1.6944903 1.871536e-38
-4.9941683 14.271092 1.6999024 1.8161827e-38
-5.0082593 14.499505 1.7007272 2.0098291e-38
-4.9978781 14.420596 1.7092328 1.9545119e-38
-5.0180621 14.696318 1.6998599 2.1481585e-38
-12.702559 14.996158 1.6474643 8.8504175e-39
-5.0299845 14.892998 1.6959994 2.2034757e-38
-12.848364 15.115874 1.7495736 6.5429988e-39
-12.710347 15.096551 1.6980113 7.281287e-39
-12.498168 15.090029 1.7147169 8.1106945e-39
-12.274163 15.076016 1.6997393 9.8624157e-39
-12.125143 15.085863 1.7207121 1.0876929e-38
-11.925341 15.109765 1.7104214 1.1983637e-38
-11.716352 15.137479 1.699087 1.3182183e-38
-11.516047 15.168148 1.6990601 1.4288891e-38
-11.321418 15.180598 1.6709005 1.5949134e-38
-11.111519 15.192413 1.6509012 1.5120815e-38
-10.445298 15.182565 1.7252805 1.7963672e-38
-10.292322 15.189047 1.703247 1.7602851e-38
-10.138876 15.191875 1.7150495 9.6758468e-39
-5.0583205 15.156115 1.6994035 1.991354e-38
-12.858383 15.218677 1.7602605 4.3299506e-39
-12.524672 15.210566 1.6551294 7.0972488e-39
-11.253375 15.210847 1.7529522 1.5579991e-38
-11.082191 15.215372 1.7188274 1.7056563e-38
-10.898411 15.230182 1.6966525 8.7589436e-39
-10.707394 15.247117 1.701117 7.4642377e-39
-10.469035 15.252737 1.6980584 1.3080569e-38
-10.32708 15.218169 1.6955712 1.8889608e-38
-10.084717 15.216171 1.71242 8.2947158e-39
-9.9905796 15.227338 1.6740344 1.3272197e-38
-9.5245485 15.372705 1.6585556 1.373281e-38
-9.2396221 15.393223 1.7767446 1.0141134e-38
-8.8492117 15.389989 1.6821475 1.3727731e-38
-8.6994362 15.388222 1.6973416 1.3912846e-38
-8.5588188 15.394333 1.6940905 1.3635532e-38
-5.0647745 15.295079 1.6997873 1.8899031e-38
-9.413928 15.409973 1.6320722 1.3455868e-38
-9.2239456 15.480456 1.7053349 1.4103772e-38
-9.0943031 15.488839 1.6994468 1.3274011e-38
-8.9425535 15.491711 1.6993258 1.0323744e-38
-8.7020006 15.445397 1.7000903 1.1421053e-38
-8.4990005 15.458156 1.6994673 1.1973512e-38
-8.2952375 15.472667 1.7014903 1.1604726e-38
-8.0984325 15.487261 1.698172 1.2802907e-38
-7.8920455 15.510448 1.6993265 1.3447552e-38
-7.6950207 15.522872 1.6999453 1.5014509e-38
-7.5919771 15.527833 1.6958756 1.5751709e-38
-7.2948332 15.554255 1.7009964 2.1281622e-38
-7.1820245 15.558156 1.6940316 2.100684e-38
-6.8997765 15.58077 1.6973455 2.3223862e-38
-6.7523646 15.593188 1.6991835 2.3223504e-38
-6.5540848 15.596116 1.6884673 2.322206e-38
-6.379045 15.598418 1.6068426 2.2757114e-38
-5.0782447 15.494641 1.6994772 1.7515377e-38
-6.6582203 15.605837 1.700997 2.3220253e-38
-6.4962564 15.615315 1.7010672 2.3223862e-38
-6.3599024 15.622241 1.697619 2.3035867e-38
-6.1352129 15.627001 1.6979787 2.2851486e-38
-5.0899839 15.688002 1.6986363 1.613244e-38
-5.1034279 15.813756 1.7493353 1.3554925e-38
-4.4045815 4.7742481 1.8908176 1.4381088e-38
-4.3965182 4.7561359 1.9457886 1.4933904e-38
-4.4149485 4.8965645 1.8991969 1.5118295e-38
-4.398572 4.9109793 1.8798298 1.5394882e-38
-4.4268556 5.1009231 1.8985926 1.6778175e-38
-4.3975725 5.0123892 1.9910897 1.6500152e-38
-4.4363699 5.3054662 1.8978856 1.8899032e-38
-4.4520254 5.5367608 1.8974146 2.1480866e-38
-4.4640408 5.7850246 1.8997906 2.2956713e-38
-4.470521 5.8949919 1.8994874 2.3048907e-38
-4.4853911 6.1689105 1.8990232 2.0927333e-38
-4.4914021 6.2921152 1.8984151 2.0004659e-38
-4.5010748 6.4971495 1.9005054 1.8989784e-38
-4.5138249 6.711988 1.8984963 1.6407591e-38
-4.5214634 6.894465 1.899824 1.6407229e-38
-4.5341749 7.1570463 1.8972193 1.5025018e-38
-4.5399032 7.2966871 1.8987591 1.4748075e-38
-4.549715 7.4990215 1.9010392 1.3918677e-38
-4.5631266 7.7384682 1.9004531 1.3734641e-38
-4.6038513 7.9723487 1.8483346 1.871571e-38
-4.5696397 7.8951449 1.899344 1.4748791e-38
-4.6027584 8.1470299 1.8807969 1.9821699e-38
-4.5817971 8.0996485 1.900969 1.6684541e-38
-4.6030507 8.350997 1.8959081 1.8713921e-38
-4.5971475 8.3167725 1.9014469 1.8345138e-38
-4.6070361 8.5874777 1.900503 2.1019169e-38
-4.599288 8.5692129 1.9809991 2.1112083e-38
-4.6134295 8.6946774 1.898819 2.1849289e-38
-4.5965304 8.6363983 1.9740767 2.1942204e-38
-4.6218767 8.8897591 1.9009479 2.2863799e-38
-4.6362071 9.0938396 1.8992417 2.2863799e-38
-4.647294 9.295023 1.899961 2.2033678e-38
-4.5920181 9.339571 1.8885765 2.3048189e-38
-4.6725454 9.5729761 1.8804142 1.7607563e-38
-4.6868386 9.6965389 1.8993824 1.6684531e-38
-4.6955457 9.8915453 1.8996108 1.6960759e-38
-4.7207184 10.169174 1.8995848 1.5485986e-38
-4.7265491 10.292233 1.899786 1.5025374e-38
-4.7361541 10.489897 1.9000686 1.4380367e-38
-4.7494912 10.692245 1.8984231 1.474987e-38
-4.8063965 10.929658 1.8150386 1.6499418e-38
-4.7615075 10.891691 1.9035072 1.6225356e-38
-4.8076429 11.120078 1.8455306 1.7882001e-38
-4.7856584 11.180917 1.8998294 1.7516458e-38
-4.8010564 11.388298 1.8857571 2.0651105e-38
-4.7901859 11.291812 1.8979546 1.8991586e-38
-4.8060312 11.533004 1.9085796 2.2495376e-38
-4.7963858 11.445947 1.8910149 2.1481226e-38
-4.8148313 11.694936 1.8993835 2.3325494e-38
-4.7976789 11.647803 1.8598504 2.3325494e-38
-4.8276262 11.897813 1.9005603 2.341769e-38
-4.7984948 11.815076 1.8591148 2.2864157e-38
-4.8395419 12.099872 1.9016999 2.3325494e-38
-4.8737693 12.338946 1.8983723 2.0374517e-38
-4.8807368 12.495678 1.9004482 1.9820623e-38
-4.8928866 12.696492 1.8988019 1.8713918e-38
-4.9167304 12.923281 1.8992683 1.6870004e-38
-4.9237146 13.09401 1.8996469 1.6132802e-38
-4.9372358 13.298671 1.9000582 1.5394518e-38
-4.9516039 13.49509 1.8994871 1.4841706e-38
-4.9641132 13.74998 1.9007442 1.5395239e-38
-4.9700184 13.894743 1.899734 1.5948055e-38
-5.0010118 14.171924 1.8637402 1.659378e-38
-4.982357 14.097037 1.8987159 1.7238793e-38
-5.0026317 14.359829 1.8776792 1.9452205e-38
-4.9935141 14.282166 1.9045184 1.8898672e-38
-5.0093064 14.500487 1.8993676 2.1112085e-38
-4.9985099 14.435613 1.9063931 2.0650746e-38
-5.0192766 14.694444 1.9025356 2.2772322e-38
-5.0328021 14.895856 1.9028175 2.3325494e-38
-4.9997053 14.814791 1.8150469 2.2219866e-38
-12.841345 15.074841 1.8060347 6.9117884e-39
-12.701914 15.124548 1.9253902 7.1883739e-39
-12.474919 15.114598 1.9034818 7.3734924e-39
-12.308614 15.094519 1.9177791 8.2958102e-39
-12.151001 15.095683 1.8793077 9.5858274e-39
-11.90196 15.116692 1.9083112 1.133719e-38
-11.724176 15.131836 1.893532 1.2812683e-38
-11.490976 15.163643 1.8997794 1.4380367e-38
-11.319853 15.181734 1.8866816 1.5579629e-38
-11.107798 15.194813 1.908105 1.5949132e-38
-10.97114 15.197589 1.8691671 6.452978e-39
-10.421864 15.192961 1.88818 1.8056593e-38
-10.30097 15.194087 1.8936542 1.8058406e-38
-10.100629 15.194654 1.8979237 1.2074375e-38
-5.0585217 15.157743 1.8992821 2.1019888e-38
-11.210021 15.208801 1.9405853 1.5487071e-38
-11.086218 15.21436 1.9005939 1.6594502e-38
-10.888483 15.228245 1.8890353 8.1117777e-39
-10.68197 15.255651 1.9000384 7.4645978e-39
-10.471173 15.253991 1.8928503 1.1792716e-38
-10.333939 15.236024 1.9113647 1.6675106e-38
-10.086031 15.223039 1.8986554 9.5836694e-39
-9.9673834 15.23522 1.8573574 1.3548428e-38
-8.8404226 15.399166 1.8102705 1.3820285e-38
-8.7044983 15.390032 1.9032869 1.7218941e-38
-8.599453 15.397161 1.9459373 1.8413528e-38
-5.0640121 15.292481 1.9009464 1.954368e-38
-9.229104 15.479565 1.899202 1.4195968e-38
-9.094099 15.489664 1.9005548 1.3181458e-38
-8.9464922 15.490847 1.8983563 1.0047159e-38
-8.7027121 15.441206 1.8988825 1.2434499e-38
-8.4958506 15.456578 1.9012636 1.3080954e-38
-8.2976894 15.471689 1.8975847 1.3450459e-38
-8.1013145 15.487075 1.9011186 1.5295094e-38
-7.8913908 15.510446 1.8991355 1.6216689e-38
-7.6977572 15.521463 1.8993731 1.6767688e-38
-7.5899167 15.530153 1.8988096 1.6397457e-38
-7.2954922 15.552756 1.8998438 2.2575264e-38
-7.1808705 15.55824 1.8866024 1.6862758e-38
-6.8972635 15.582413 1.8990611 2.3324759e-38
-6.7529268 15.592609 1.8962218 2.323255e-38
-6.5510535 15.595625 1.9524655 2.3232908e-38
-6.3901253 15.598267 1.9073888 2.3139265e-38
-5.0761867 15.492951 1.8989453 1.7330267e-38
-6.6531644 15.606215 1.9018052 2.3230736e-38
-6.4929056 15.614019 1.901466 2.323218e-38
-6.3613949 15.620536 1.8963903 2.3135649e-38
-6.1414056 15.622224 1.8975899 2.3136016e-38
-5.0879645 15.682003 1.8976952 1.5486713e-38
-5.1634583 15.874198 1.8731383 2.2035118e-38
-4.4033017 4.7899661 2.0411012 1.7514652e-38
-4.3912096 4.7610703 2.0658073 1.8252573e-38
-4.4039316 4.9883108 2.0967619 1.7977076e-38
-4.3971353 4.8340378 2.1054487 1.9635147e-38
-4.4254746 5.1055255 2.0762768 1.7423905e-38
-4.3980436 5.0053883 2.1116548 1.7423183e-38
-4.4353933 5.3111963 2.0657647 1.9175979e-38
-4.4484892 5.5385203 2.0548704 2.2034398e-38
-4.4557152 5.7803984 2.0387535 2.3325494e-38
-4.4726725 5.9073167 2.0605049 2.3325494e-38
-4.4794188 6.1673861 2.0323963 2.0651464e-38
-4.4943361 6.306684 2.0595841 1.8898672e-38
-4.5054197 6.5017576 2.0960915 1.6684179e-38
-4.5126719 6.7164631 2.0518186 1.4196335e-38
-4.5265489 6.9000101 2.0899518 1.428709e-38
-4.5280013 7.1540432 2.0485444 1.3642802e-38
-4.5428858 7.3064756 2.0780225 1.5669664e-38
-4.552424 7.4950795 2.0996115 1.7974555e-38
