# .PCD v0.7 - Point Cloud Data file format
VERSION 0.7
FIELDS x y z rgb
SIZE 4 4 4 4
TYPE F F F F
COUNT 1 1 1 1
WIDTH 1064
HEIGHT 1
VIEWPOINT 0 0 0 1 0 0 0
POINTS 1064
DATA ascii
-2.9886222 12.127552 0.16883175 1.3736433e-38
-3.0036328 12.341142 0.1253116 1.1063111e-38
-2.9934504 12.27687 0.14475437 1.226202e-38
-3.0142336 12.520431 0.1146628 1.1615568e-38
-2.9985285 12.421982 0.095129043 1.0877634e-38
-3.0277588 12.715202 0.10493711 1.1338978e-38
-2.9917605 12.634802 0.1917868 1.3644953e-38
-3.0434618 12.897588 0.10574051 1.1246784e-38
-3.0603802 13.121331 0.17448781 1.2814115e-38
-3.0765724 13.296119 0.14066656 1.0786166e-38
-3.0891581 13.509676 0.10330108 1.1431173e-38
-3.1035187 13.721335 0.12106628 1.1154947e-38
-3.2049451 13.813914 0.19004203 1.0231924e-38
-3.1239817 13.905663 0.082089238 1.1707037e-38
-3.1255863 14.118632 0.17263217 1.2907383e-38
-3.2058313 14.366147 0.1840892 1.4568354e-38
-3.1417263 14.324967 0.13522008 1.0785808e-38
-3.2041104 14.555575 0.081224076 1.2997413e-38
-3.161123 14.574463 0.18089062 1.3828265e-38
-3.2036064 14.729995 0.047445972 1.4012651e-38
-3.1739283 14.716006 0.15733691 1.2261661e-38
-3.2034328 14.933866 0.096969776 1.0138633e-38
-3.1892662 14.910965 0.11754847 1.1338619e-38
-3.2113512 15.124153 0.10422996 1.1523366e-38
-3.1960292 15.052586 0.10581969 1.2260574e-38
-3.2222931 15.300703 0.099160612 1.2075827e-38
-3.2262387 15.540955 0.17042607 1.46573e-38
-3.2449617 15.706634 0.14294581 1.5025005e-38
-3.2602501 15.850206 0.078909688 1.6316097e-38
-3.2468963 16.057343 0.035556469 1.6409016e-38
-9.6785164 17.368639 0.041783165 1.4840258e-38
-9.486042 17.370117 0.11518616 1.4471831e-38
-9.3777046 17.368889 0.18306787 1.4287802e-38
-9.1171207 17.372332 0.12090963 1.4287437e-38
-8.9509487 17.37738 0.12229474 1.4471463e-38
-9.0942307 17.444286 0.14349851 1.3270743e-38
-8.9366436 17.478146 0.12251593 1.2073641e-38
-8.7033615 17.519152 0.16080005 1.336692e-38
-8.538969 17.523796 0.18606681 1.4012646e-38
-8.242959 17.552387 0.18606472 1.4472192e-38
-8.0805006 17.570654 0.18855046 1.4656223e-38
-7.8544192 17.577185 0.18176903 1.4474354e-38
-7.7916007 17.582254 0.19383249 1.4749863e-38
-2.6228478 6.136333 0.37158668 1.3458398e-38
-2.6415491 6.3670559 0.38885584 1.3181816e-38
-2.6510048 6.583725 0.38811988 1.263044e-38
-2.6586053 6.7265763 0.35924867 1.2352772e-38
-2.6756225 6.9553504 0.37774611 1.1614854e-38
-2.6779971 7.1290188 0.34398568 1.0786164e-38
-2.6965063 7.3105946 0.38645068 9.9549714e-39
-2.7047143 7.4988813 0.34561071 8.4805532e-39
-2.7231789 7.7787485 0.37821421 6.7270314e-39
-2.7326674 7.9460473 0.34448704 5.6213985e-39
-2.7414451 8.1505461 0.3660405 4.7916378e-39
-2.8000126 8.3829727 0.32695553 3.5916289e-39
-2.7513433 8.3657846 0.38348413 4.3306555e-39
-2.8026772 8.5363007 0.30065063 5.4312283e-39
-2.7530589 8.4584141 0.35887724 5.2511754e-39
-2.7674048 8.6284895 0.30991513 6.1731247e-39
-2.8425057 9.1751509 0.344569 1.4648262e-38
-2.823246 9.3424683 0.267883 1.4280917e-38
-2.8394175 9.5150185 0.37424681 1.4557496e-38
-2.7925606 9.5114183 0.33539787 1.4555699e-38
-2.8480294 9.7002192 0.3320154 1.6405396e-38
-2.7877169 9.6062279 0.20708974 1.4373836e-38
-2.860518 9.9645386 0.38305515 1.9175238e-38
-2.8730423 10.100458 0.37525165 1.511466e-38
-2.8885806 10.298994 0.35022169 1.2349519e-38
-2.88889 10.507848 0.29986915 1.3274373e-38
-2.8938344 10.68251 0.30421707 1.3642792e-38
-2.9227099 10.969475 0.38539749 1.3827901e-38
-2.9317899 11.113378 0.3673937 1.4012653e-38
-2.9400363 11.314956 0.33159146 1.410521e-38
-3.0023842 11.561565 0.35061607 1.4566192e-38
-2.9603822 11.55481 0.38393632 1.4288876e-38
-3.0055149 11.768425 0.32005262 1.4473276e-38
-2.9717674 11.700735 0.3632172 1.4197048e-38
-3.0072124 11.920939 0.3071585 1.4197411e-38
-2.9774733 11.909848 0.31497169 1.4105208e-38
-3.0028872 12.137098 0.32671803 1.4289968e-38
-2.9850326 12.083027 0.30290437 1.4197045e-38
-3.0034261 12.328535 0.30785728 1.3921537e-38
-2.9920371 12.272161 0.29976732 1.4013733e-38
-3.0291467 12.560681 0.38546729 1.3828264e-38
-2.997189 12.440203 0.29167306 1.3921539e-38
-3.0357535 12.725233 0.35198003 1.3552395e-38
-2.9909899 12.651081 0.26201165 1.4013378e-38
-3.0445552 12.910968 0.32245159 1.3551317e-38
-2.9937174 12.899999 0.26037601 1.4289607e-38
-3.0560806 13.091002 0.29553667 1.3367645e-38
-3.0714786 13.283728 0.30210525 1.3459837e-38
-3.0963814 13.564465 0.38554496 1.3459843e-38
-3.1014957 13.712448 0.35586736 1.3643871e-38
-3.1105378 13.89998 0.31939024 1.3736424e-38
-3.2048283 14.155392 0.34600207 1.373715e-38
-3.129112 14.135637 0.36948368 1.4104851e-38
-3.2049427 14.3003 0.28548455 1.4566911e-38
-3.1396651 14.321898 0.33241341 1.4381078e-38
-3.2028296 14.536657 0.35758695 1.447471e-38
-3.1538653 14.501525 0.31291088 1.4473992e-38
-3.2024546 14.75458 0.33688813 1.530267e-38
-3.1686621 14.69907 0.30794582 1.4566186e-38
-3.2058496 14.92929 0.33337086 1.5211196e-38
-3.1899538 14.964332 0.37568283 1.5026083e-38
-3.2051904 15.132027 0.34910583 1.4842772e-38
-3.194608 15.067908 0.3694928 1.5026443e-38
-3.2143226 15.304097 0.32724735 1.4934252e-38
-3.1988986 15.231673 0.37354025 1.5026446e-38
-3.2272277 15.491998 0.30142063 1.4658025e-38
-3.2430849 15.707068 0.29293501 1.4933884e-38
-3.2582769 15.856173 0.30715913 1.4932804e-38
-10.171196 17.39537 0.26981574 8.3850982e-39
-9.4381056 17.36203 0.34336558 4.7923525e-39
-9.3028069 17.377722 0.30456629 9.4021438e-39
-9.145875 17.394535 0.32603407 1.4195228e-38
-8.9698887 17.383076 0.31553975 1.373606e-38
-9.2088556 17.400763 0.26648888 1.3733889e-38
-9.0913801 17.452742 0.31584427 1.2626813e-38
-8.9116287 17.508291 0.36378664 1.207653e-38
-8.6772823 17.514805 0.35898179 1.4471471e-38
-8.5065222 17.524666 0.35574389 1.447147e-38
-8.3645287 17.535862 0.38258216 1.4655502e-38
-8.103322 17.570215 0.30177683 1.4840971e-38
-7.9045486 17.586113 0.31681454 1.5025363e-38
-7.7320728 17.594078 0.33891442 1.5301236e-38
-7.5827579 17.597628 0.36013949 1.5393786e-38
-7.8339567 17.601374 0.3620401 1.5301591e-38
-7.7046094 17.605923 0.36451936 1.5485625e-38
-7.5499835 17.606476 0.38021004 1.5578179e-38
-7.3431821 17.618675 0.37404943 1.5947329e-38
-2.6031251 5.782568 0.5496946 1.4013015e-38
-2.5931869 5.7615609 0.55415934 1.4012655e-38
-2.6121943 5.9173408 0.53086537 1.4104492e-38
-2.5968366 5.858325 0.54745382 1.4104494e-38
-2.6211445 6.0828123 0.55140156 1.3827908e-38
-2.5983803 6.0499282 0.57099509 1.4011578e-38
-2.6322389 6.3413181 0.54690033 1.373535e-38
-2.6468236 6.5189676 0.52413827 1.327473e-38
-2.6534677 6.6854672 0.53725165 1.2998143e-38
-2.6737025 6.9572406 0.51033378 1.207619e-38
-2.6750722 7.0683379 0.53179026 1.1707407e-38
-2.6890621 7.3114347 0.50420141 1.0417023e-38
-2.7027142 7.5354209 0.51649505 8.9422502e-39
-2.7119048 7.7574234 0.54450428 7.8344621e-39
-2.7270219 7.9237194 0.51970357 6.3586062e-39
-2.7306502 8.0595121 0.55934048 5.5288497e-39
-2.7439828 8.3208151 0.54852134 4.8834705e-39
-2.7477152 8.4514589 0.51171762 5.7107046e-39
-2.7591467 8.617898 0.47390574 8.4769435e-39
-2.8227634 9.3726845 0.49168086 1.6772003e-38
-2.8288388 9.5177612 0.50326443 1.5017752e-38
-2.7962737 9.4720945 0.51200116 1.4554972e-38
-2.8424461 9.719451 0.54949814 1.8806468e-38
-2.8462534 9.9063425 0.51110727 1.8529881e-38
-2.8578596 10.110079 0.5028652 1.5945504e-38
-2.8820329 10.29611 0.49691027 1.2256954e-38
-2.8896797 10.595472 0.57632315 1.3275095e-38
-2.8983345 10.673146 0.55363923 1.3459484e-38
-2.9143717 10.905286 0.52376044 1.3920818e-38
-2.9278293 11.095285 0.57834548 1.4104496e-38
-2.9461567 11.310336 0.54466319 1.4473272e-38
-3.0040958 11.519913 0.54288572 1.4750582e-38
-2.950037 11.50188 0.506486 1.4566184e-38
-3.0059814 11.758902 0.48290303 1.4843138e-38
-2.9615059 11.686353 0.5024631 1.4750935e-38
-3.0126789 11.897082 0.50276327 1.4843139e-38
-2.9834125 11.961026 0.56438965 1.4566552e-38
-3.0061898 12.150447 0.56577796 1.4473995e-38
-2.9950516 12.056328 0.57784063 1.4473998e-38
-3.0105114 12.313136 0.52744317 1.4289961e-38
-2.9975038 12.345901 0.5671612 1.4566545e-38
-3.0196006 12.502195 0.50780869 1.42896e-38
-2.9972756 12.416985 0.54897833 1.447435e-38
-3.0293021 12.700068 0.50127959 1.4105566e-38
-2.9877145 12.631997 0.49488866 1.3829705e-38
-3.0556965 12.975139 0.58092827 1.4011579e-38
-2.995368 12.89232 0.54036129 1.4105943e-38
-3.0656195 13.129539 0.56964493 1.3552392e-38
-3.0775578 13.303345 0.53985393 1.3735706e-38
-3.0986931 13.568819 0.58053017 1.3643511e-38
-3.1087203 13.713927 0.55544466 1.3920458e-38
-3.1165633 13.906295 0.5151186 1.4288879e-38
-3.2055831 14.152972 0.40550846 1.3737149e-38
-3.1257083 14.103507 0.49941161 1.4565826e-38
-3.2025976 14.399309 0.44890463 1.4659105e-38
-3.139883 14.295251 0.50221163 1.4843131e-38
-3.2055018 14.529634 0.47843337 1.4750935e-38
-3.1676977 14.531441 0.57793438 1.5026806e-38
-3.2023518 14.782428 0.53900951 1.5396306e-38
-3.1754611 14.712869 0.54316658 1.5303031e-38
-3.201859 14.898972 0.4454532 1.5118997e-38
-3.1870518 14.899714 0.50716257 1.5210836e-38
-3.2049246 15.145089 0.47562936 1.5211193e-38
-3.1936059 15.080933 0.50835419 1.530339e-38
-3.2104537 15.31423 0.50343442 1.5027165e-38
-3.1978893 15.266982 0.48744309 1.5211556e-38
-3.2287385 15.50399 0.49909222 1.4566545e-38
-3.2500632 15.716263 0.50893235 1.3366553e-38
-3.2673659 15.819271 0.46881217 1.2719732e-38
-9.4035339 17.375715 0.5786916 1.3541913e-38
-9.3164759 17.378557 0.57385999 1.2900167e-38
-9.1926441 17.392824 0.58253634 1.2075468e-38
-8.9601078 17.389477 0.49234024 1.4196667e-38
-9.2002335 17.402048 0.44248724 1.3367279e-38
-9.0801878 17.453943 0.50039548 1.262681e-38
-8.9086723 17.508841 0.49686056 1.2537155e-38
-8.7061338 17.524279 0.50588185 1.4564742e-38
-8.4997921 17.538034 0.50591081 1.4656939e-38
-8.3033152 17.552183 0.50198394 1.4748776e-38
-8.1007633 17.5634 0.53734142 1.4841692e-38
-7.9123397 17.580559 0.57263374 1.5117565e-38
-7.7466178 17.597521 0.50314736 1.5762928e-38
-7.5543647 17.596222 0.46313375 1.5947322e-38
-7.8434558 17.605429 0.58169711 1.5210834e-38
-7.688447 17.610178 0.50074059 1.5855123e-38
-7.4855661 17.622183 0.5082503 1.6039873e-38
-7.3172894 17.635063 0.5345428 1.631682e-38
-7.1493077 17.647837 0.57929182 1.6593769e-38
-6.9218926 17.654455 0.55791545 1.6870357e-38
-6.7736669 17.667461 0.58250368 1.7054394e-38
-2.6043913 5.7695737 0.69116277 1.4842057e-38
-2.592118 5.7526636 0.70639139 1.484206e-38
-2.6123638 5.9895334 0.73454386 1.48417e-38
-2.5957892 5.882844 0.72455776 1.5026449e-38
-2.618001 6.091589 0.70169175 1.4565831e-38
-2.5987637 6.0355229 0.66980433 1.4473633e-38
-2.6316588 6.3290792 0.70021582 1.4289244e-38
-2.5993447 6.267458 0.68667489 1.4749856e-38
-2.6451347 6.5908227 0.73032576 1.3736786e-38
-2.6506903 6.6886292 0.70074868 1.3367287e-38
-2.6623864 6.9882765 0.71388912 1.2536808e-38
-2.672653 7.0928235 0.69529241 1.1983993e-38
-2.6806204 7.3008752 0.7004739 1.1246063e-38
-2.7002754 7.519002 0.70081168 1.0140435e-38
-2.7112019 7.7469735 0.70107543 8.7564184e-39
-2.7247627 7.9966254 0.73834532 7.373484e-39
-2.7297471 8.096014 0.69978786 6.0820207e-39
-2.8122966 8.3591642 0.77240175 7.0010819e-39
-2.7351987 8.2977829 0.70216793 5.067503e-39
-2.8035908 8.4490967 0.7742663 7.6493282e-39
-2.7428505 8.4642878 0.70131564 6.3567859e-39
-2.7684131 8.6147957 0.64834726 1.1056241e-38
-2.8184342 9.3686647 0.72785085 1.4925551e-38
-2.8364532 9.5944653 0.75773221 1.4463498e-38
-2.7972627 9.4835958 0.70553422 1.4830833e-38
-2.8447731 9.6871595 0.70655334 1.5944054e-38
-2.8500304 9.9030409 0.70632869 1.5297601e-38
-2.8627021 10.114233 0.69966096 1.4651142e-38
-2.8804338 10.307223 0.70547312 1.2349516e-38
-2.8869443 10.588191 0.70871913 1.3459846e-38
-2.8975286 10.692511 0.70336753 1.3736431e-38
-2.9047389 10.897408 0.70360821 1.4197765e-38
-2.9270318 11.106632 0.70678246 1.4289964e-38
-2.9357982 11.296314 0.70043486 1.4842776e-38
-3.0059614 11.476869 0.76483536 1.539776e-38
-2.9425845 11.503737 0.7035833 1.530411e-38
-3.0055029 11.733464 0.68356806 1.5396314e-38
-2.9601972 11.704311 0.69933653 1.5580337e-38
-3.0042124 11.977237 0.73436695 1.5672894e-38
-2.9822323 11.967659 0.69985205 1.5027532e-38
-3.0029607 12.12411 0.64151853 1.4750585e-38
-2.9920962 12.096126 0.71757704 1.5211919e-38
-3.0039186 12.305624 0.67096668 1.4935688e-38
-2.995146 12.287001 0.71998936 1.5211916e-38
-3.0146873 12.497849 0.70266956 1.4843133e-38
-2.9980187 12.412479 0.73418051 1.5211913e-38
-3.0344715 12.762787 0.76584321 1.4290321e-38
-2.9902101 12.696348 0.65261948 1.4107376e-38
-3.0475585 12.896302 0.71455145 1.4013017e-38
-3.0586841 13.093542 0.70168608 1.3921176e-38
-3.07761 13.30969 0.73321879 1.3552399e-38
-3.08954 13.502449 0.7080434 1.382898e-38
-3.1025755 13.691558 0.6978721 1.4197044e-38
-3.1141737 13.898257 0.70107639 1.4473991e-38
-3.1276159 14.098156 0.70007294 1.4843131e-38
-3.20909 14.324311 0.76267689 1.6134232e-38
-3.144835 14.347024 0.71136636 1.4934976e-38
-3.2021561 14.516224 0.70542729 1.5765093e-38
-3.1566896 14.500105 0.70529729 1.5303754e-38
-3.2039678 14.764473 0.70909613 1.5581059e-38
-3.1666198 14.699899 0.70190066 1.5580337e-38
-3.2066753 14.904116 0.70548338 1.5672894e-38
-3.1820216 14.903356 0.70209128 1.5672534e-38
-3.203841 15.145086 0.71099848 1.5580696e-38
-3.1931493 15.076703 0.69101495 1.5580696e-38
-3.2145786 15.29538 0.70180005 1.5212275e-38
-3.1971397 15.251659 0.6726287 1.530411e-38
-3.2322886 15.50024 0.69970638 1.4935329e-38
-3.2532578 15.769235 0.71643561 1.3828984e-38
-3.263617 15.824543 0.73086882 1.1061676e-38
-9.415184 17.381323 0.70802456 1.3542979e-38
-9.3054895 17.389229 0.69414568 1.2809775e-38
-9.1844969 17.395161 0.68017918 1.1982905e-38
-8.9796047 17.384533 0.72880542 1.4288508e-38
-9.226819 17.402853 0.75971371 1.1798878e-38
-9.1053715 17.42016 0.73499864 1.1706323e-38
-8.9112186 17.500275 0.70158064 1.2075457e-38
-8.6939154 17.521185 0.69962233 1.465694e-38
-8.4959269 17.540569 0.70289057 1.4748776e-38
-8.3034353 17.561405 0.70075375 1.4841687e-38
-8.0983944 17.576973 0.70173281 1.5117921e-38
-7.9033847 17.587008 0.70258921 1.5394152e-38
-7.7876282 17.59631 0.76932031 1.5764018e-38
-7.5805736 17.59557 0.71240819 1.6316823e-38
-7.832407 17.605316 0.69333428 1.539523e-38
-7.7884617 17.603792 0.77476919 1.5764378e-38
-7.4920211 17.626303 0.70290095 1.6593406e-38
-7.2885542 17.645559 0.69748163 1.6962191e-38
-7.1039824 17.658102 0.71964204 1.7147304e-38
-6.9556017 17.673044 0.72506118 1.7330978e-38
-6.6921139 17.680592 0.71141326 1.7515732e-38
-6.5835991 17.695757 0.73693502 1.7516092e-38
-2.6030781 5.7583885 0.90426868 1.5855853e-38
-2.5912359 5.7383938 0.89995092 1.5671462e-38
-2.6099174 5.9864793 0.92809111 1.5671462e-38
-2.5986876 5.9659414 0.93687069 1.5947689e-38
-2.6161397 6.0937438 0.89479721 1.5395234e-38
-2.597667 6.0736442 0.91194433 1.5763652e-38
-2.6280119 6.3205023 0.90398347 1.5026093e-38
-2.5985723 6.2838416 0.87210536 1.5027165e-38
-2.6436601 6.5811524 0.9133004 1.4289607e-38
-2.6491895 6.6942496 0.89878148 1.3919742e-38
-2.6638188 6.9689341 0.90786648 1.2813396e-38
-2.6700811 7.0942497 0.89716715 1.2260577e-38
-2.6786954 7.2938371 0.90176743 1.1431173e-38
-2.6953561 7.5052977 0.90251225 1.1153869e-38
-2.7060993 7.7394791 0.90201157 1.0875843e-38
-2.7196193 7.9901729 0.9141801 1.0230834e-38
-2.8015385 8.0639591 0.97502267 5.5259406e-39
-2.7253587 8.097805 0.89884931 9.2170378e-39
-2.8096554 8.3720341 0.93707997 7.0957845e-39
-2.7330518 8.2956057 0.90348691 6.5426401e-39
-2.8055644 8.472023 0.94941455 1.0688205e-38
-2.7440856 8.4611959 0.90313751 6.632298e-39
-2.7705994 8.6341772 0.86695081 8.0163142e-39
-2.8210316 9.3920851 0.97615218 1.455787e-38
-2.8315475 9.5879612 0.92208552 1.4462783e-38
-2.7984648 9.4668579 0.84765583 1.5014864e-38
-2.8398626 9.6932735 0.89725149 1.409472e-38
-2.8494015 9.8962059 0.90238607 1.391069e-38
-2.8615024 10.103662 0.90152508 1.3727022e-38
-2.8810725 10.301154 0.89922261 1.253427e-38
-2.8847897 10.572793 0.90657204 1.3644237e-38
-2.8923302 10.698298 0.90026474 1.401266e-38
-2.9003823 10.901185 0.90108234 1.4474354e-38
-2.9208274 11.102318 0.90126437 1.4934617e-38
-2.9306679 11.296644 0.90288389 1.5579981e-38
-3.0039337 11.565632 0.94840008 1.6412268e-38
-2.9426243 11.505377 0.89826751 1.6133512e-38
-3.0043116 11.713114 0.84984797 1.5858014e-38
-2.9623442 11.700749 0.89835215 1.6318264e-38
-3.0011909 11.974563 0.92312783 1.6135313e-38
-2.9789243 11.948718 0.90186155 1.6041684e-38
-3.0051522 12.131351 0.91305894 1.6042396e-38
-2.984705 12.094361 0.89980143 1.6041682e-38
-3.0047812 12.374239 0.890221 1.55807e-38
-2.9930079 12.288401 0.90079314 1.5856928e-38
-3.01511 12.501052 0.90056205 1.5212276e-38
-2.9982986 12.411347 0.89804649 1.5580701e-38
-3.0341678 12.78987 0.92561448 1.4382518e-38
-3.0427275 12.891872 0.89641684 1.4289964e-38
-2.9999492 12.848983 0.81719291 1.4658753e-38
-3.0672951 13.191305 0.93696189 1.373715e-38
-3.0738461 13.293678 0.90109456 1.373679e-38
-3.0842278 13.500684 0.90233368 1.3828983e-38
-3.1021762 13.693648 0.89879096 1.4105568e-38
-3.1178076 13.89551 0.89633423 1.4566545e-38
-3.2278318 14.144263 0.81597733 1.6226792e-38
-3.1357069 14.093469 0.90380192 1.5211915e-38
-3.2150176 14.32454 0.88900477 1.631971e-38
-3.1398361 14.335796 0.90487576 1.5396314e-38
-3.201421 14.560584 0.82054883 1.6133869e-38
-3.1470335 14.492391 0.89763451 1.5765094e-38
-3.2026823 14.734704 0.89835584 1.6502655e-38
-3.1622887 14.694757 0.89886773 1.6225709e-38
-3.2116246 14.903014 0.90039933 1.6503374e-38
-3.1814258 14.895588 0.89896291 1.6410456e-38
-3.205668 15.137394 0.90908378 1.6410458e-38
-3.1935222 15.058477 0.89594126 1.6502652e-38
-3.2202046 15.283269 0.89599472 1.5949838e-38
-3.1991963 15.207219 0.83242071 1.6226064e-38
-3.2392538 15.483128 0.90437067 1.5488501e-38
-3.2496181 15.752424 0.90363693 1.4565473e-38
-3.2569163 15.833023 0.89510393 1.364387e-38
-9.9515505 17.376146 0.93031853 5.8043324e-39
-9.4202623 17.385647 0.90864903 1.4001784e-38
-9.3370647 17.394093 0.89754808 1.3270029e-38
-9.1836109 17.397993 0.85094267 1.1338618e-38
-8.9743719 17.382643 0.89856672 1.4105194e-38
-9.265316 17.403214 0.9051109 1.2075104e-38
-9.1112261 17.42082 0.90092951 1.1705961e-38
-8.8881073 17.494827 0.90128094 1.1891063e-38
-8.6930695 17.516132 0.89942712 1.447219e-38
-8.499979 17.538746 0.90039313 1.4379633e-38
-8.3002815 17.563427 0.90134931 1.4656223e-38
-8.0983772 17.580872 0.89894754 1.5025365e-38
-7.9144735 17.593498 0.90043038 1.5486346e-38
-7.7261977 17.594587 0.91491413 1.5946961e-38
-7.5330725 17.590233 0.91599011 1.6224988e-38
-7.3766522 17.597286 0.90046185 1.6686319e-38
-7.832581 17.604303 0.89676678 1.567074e-38
-7.7892671 17.607594 0.9250071 1.5579981e-38
-7.48983 17.62538 0.89553082 1.6685604e-38
-7.2971339 17.648449 0.9020462 1.7330974e-38
-7.0928588 17.664038 0.90011877 1.7700118e-38
-6.9411688 17.675087 0.90446734 1.7884513e-38
-6.6894164 17.683548 0.89479113 1.8161461e-38
-6.565773 17.695711 0.90854061 1.8069627e-38
-2.6040707 5.7422175 1.1152012 1.6870365e-38
-2.5907798 5.7199254 1.0956649 1.6501942e-38
-2.6102083 5.9701409 1.106341 1.6501943e-38
-2.5954835 5.9514318 1.0401998 1.631719e-38
-2.6152647 6.1001101 1.1034425 1.6409387e-38
-2.595906 6.0512323 1.0960211 1.6594133e-38
-2.6276412 6.3042841 1.1018288 1.5856215e-38
-2.5986135 6.2290435 1.0502273 1.6041675e-38
-2.6447332 6.5661502 1.1137885 1.4934617e-38
-2.6489871 6.6944251 1.0972587 1.4289244e-38
-2.6652713 6.9536028 1.1115423 1.2998866e-38
-2.6697228 7.0930896 1.0949564 1.2445331e-38
-2.6938663 7.3832369 1.1662103 1.1247148e-38
-2.6954749 7.4908204 1.1009614 1.1430455e-38
-2.7084084 7.712707 1.1032044 1.0968755e-38
-2.7207718 7.9756227 1.1105186 1.2167665e-38
-2.8112345 8.1491251 1.1791637 1.0043164e-38
-2.7241693 8.0915575 1.0993994 1.2167664e-38
-2.8233604 8.3542271 1.1256466 1.0225381e-38
-2.7310355 8.287591 1.0982535 8.9415342e-39
-2.8039131 8.5102425 1.1041188 1.372665e-38
-2.745903 8.4583569 1.0985225 6.6333756e-39
-2.7710383 8.6255074 1.0219895 1.317528e-38
-2.891367 8.9610233 1.1290066 1.5478716e-38
-2.8505328 9.1719179 1.0917779 1.5295771e-38
-2.8158066 9.3907337 1.175342 1.4831919e-38
-2.8312049 9.5775099 1.1132358 1.4739372e-38
-2.7974648 9.4863701 1.0506406 1.4189082e-38
-2.8364167 9.6841049 1.0781196 1.4464229e-38
-2.8461583 9.8996639 1.0630512 1.3542272e-38
-2.8615873 10.127069 1.0832809 1.3174571e-38
-2.7903264 10.106072 1.1725466 1.7230799e-38
-2.8850565 10.292124 1.0943686 1.161267e-38
-2.7912295 10.201335 1.1192443 1.8153099e-38
-2.885253 10.559293 1.1031833 1.3736075e-38
-2.6100974 10.462231 1.0377253 1.9634736e-38
-2.8895073 10.695444 1.0979356 1.4105217e-38
-2.9149954 10.990378 1.1462724 1.4934619e-38
-2.9188764 11.096452 1.1017864 1.5303757e-38
-3.0238175 11.399139 1.0477676 1.5581429e-38
-2.9292877 11.30178 1.0968264 1.5303753e-38
-3.0037975 11.464261 1.0774308 1.6503749e-38
-2.9456513 11.508381 1.1029155 1.6871797e-38
-3.0033047 11.781148 1.1329582 1.751825e-38
-2.9693444 11.699188 1.1023293 1.724094e-38
-3.0037749 11.976577 1.1391269 1.7333139e-38
-2.9754446 11.936458 1.1014285 1.6963643e-38
-3.0066533 12.106023 1.0991678 1.6872159e-38
-2.9811881 12.091199 1.1011351 1.6871444e-38
-3.0081348 12.361629 1.1068823 1.6134593e-38
-2.9912169 12.272522 1.0955852 1.6503018e-38
-3.0205407 12.492892 1.1041497 1.558142e-38
-2.9925792 12.433575 1.1482706 1.5398476e-38
-3.0343814 12.777545 1.1092192 1.4566555e-38
-2.9828854 12.609962 1.08961 1.447652e-38
-3.0407786 12.895424 1.0992838 1.4381802e-38
-2.9986689 12.876964 1.1003319 1.4199217e-38
-3.064811 13.189877 1.1218157 1.3644601e-38
-3.0709519 13.293839 1.0968486 1.355276e-38
-3.0839095 13.495564 1.1027228 1.3737147e-38
-3.1067564 13.691674 1.0999526 1.4197765e-38
-3.126668 13.897293 1.1003901 1.4935328e-38
-3.1441557 14.101328 1.0988741 1.5765804e-38
-3.1369555 14.325556 1.1018603 1.6041324e-38
-3.2064846 14.577641 1.1202621 1.742641e-38
-3.1454737 14.49122 1.1010354 1.668669e-38
-3.204958 14.734303 1.0992383 1.742569e-38
-3.163348 14.695022 1.0984584 1.7148024e-38
-3.2024722 14.983134 1.1718149 1.7793754e-38
-3.1849988 14.89431 1.10004 1.742497e-38
-3.2104797 15.121987 1.1014082 1.7148383e-38
-3.1953106 15.036813 1.0743688 1.7332413e-38
-3.2288363 15.310941 1.1025676 1.6411178e-38
-3.2451472 15.515619 1.0971909 1.5581778e-38
-3.2456405 15.741773 1.1001146 1.4750226e-38
-3.2527466 15.837255 1.1036602 1.447291e-38
-9.4205799 17.387428 1.1041367 1.4647519e-38
-9.3383722 17.394211 1.0970213 1.3916481e-38
-9.173789 17.39608 1.0408 1.3733545e-38
-8.9747639 17.383797 1.0985159 1.5303735e-38
-9.4097605 17.400782 1.0812068 1.4372751e-38
-9.2599106 17.405956 1.1027194 1.308854e-38
-9.1073256 17.427711 1.1004914 1.17056e-38
-8.9014235 17.482792 1.1066394 1.0785786e-38
-8.698369 17.510271 1.1020319 1.4380713e-38
-8.4929581 17.532467 1.0982255 1.4195962e-38
-8.2943745 17.558386 1.1026491 1.4288876e-38
-8.0992527 17.582214 1.1015662 1.484169e-38
-7.9262528 17.594772 1.095737 1.5394508e-38
-7.7745109 17.597994 1.1199486 1.5855133e-38
-7.558557 17.597775 1.1448886 1.6409738e-38
-7.3590078 17.597816 1.1070958 1.696327e-38
-7.8436403 17.603834 1.1002985 1.56711e-38
-7.7738104 17.606956 1.1127481 1.585549e-38
-7.4916134 17.618006 1.0974061 1.6778519e-38
-7.3047733 17.644299 1.100466 1.7700116e-38
-7.1017685 17.663427 1.1033739 1.8253294e-38
-6.9299703 17.675865 1.0995295 1.8529884e-38
-6.6945643 17.68293 1.0996176 1.8806834e-38
-6.5463142 17.693651 1.1061931 1.8714997e-38
-2.6040971 5.7185125 1.3064951 1.8346574e-38
-2.5898395 5.7139864 1.3024018 1.8069629e-38
-2.6100707 5.9529204 1.3044457 1.7977435e-38
-2.5982332 5.9225779 1.2993152 1.8069627e-38
-2.6247425 6.1862488 1.3818287 1.7977796e-38
-2.5970924 6.0351205 1.2914896 1.7978148e-38
-2.6262791 6.2947979 1.3014984 1.6964e-38
-2.598856 6.2186031 1.2193055 1.6872153e-38
-2.643595 6.5533662 1.3001744 1.5764741e-38
-2.6493475 6.696825 1.3040454 1.4843501e-38
-2.664592 6.938611 1.3027577 1.3368013e-38
-2.6709435 7.0973439 1.302892 1.2723001e-38
-2.6928604 7.3802943 1.3225206 1.1708485e-38
-2.6935759 7.5014 1.2981566 1.1892876e-38
-2.7057657 7.7105556 1.3031609 1.2536806e-38
-2.7192724 7.9671574 1.2997954 1.345913e-38
-2.8247907 8.1670694 1.2946093 1.1610112e-38
-2.7238238 8.0989647 1.3005481 1.3736433e-38
-2.8298237 8.3781672 1.2258177 1.3635892e-38
-2.734004 8.3057947 1.3003995 9.6805411e-39
-2.8416078 8.4342413 1.2128552 1.1885979e-38
-2.7516546 8.4572134 1.3007239 7.0025182e-39
-2.8160813 9.3887672 1.2479545 1.4833002e-38
-2.8276107 9.5694675 1.2987469 1.4924479e-38
-2.8332882 9.6355581 1.3062395 1.6040955e-38
-2.8594816 9.8607035 1.3937519 1.5763652e-38
-2.8647289 10.18483 1.302106 1.2806149e-38
-2.7910938 10.122832 1.2538314 1.7599577e-38
-2.8849373 10.297167 1.3015091 1.2167291e-38
-2.8822837 10.545357 1.2992903 1.3736796e-38
-2.8882506 10.691211 1.303064 1.419813e-38
-2.9133766 10.983236 1.3184825 1.5212283e-38
-2.9182043 11.096228 1.2992421 1.5857651e-38
-3.0052934 11.37819 1.3881612 1.9822423e-38
-2.9286599 11.298399 1.3011872 1.705655e-38
-2.9501479 11.500526 1.2984462 1.8162898e-38
-3.0063763 11.73365 1.3309766 1.8348375e-38
-2.9754844 11.705194 1.2976325 1.8716432e-38
-3.0046189 11.962321 1.3149335 1.8532764e-38
-2.9734707 11.928082 1.3026054 1.8346937e-38
-3.0100427 12.118319 1.3022118 1.7887393e-38
-2.9813974 12.100968 1.2986555 1.8162542e-38
-3.0093942 12.351102 1.2977258 1.7057271e-38
-2.9922915 12.263139 1.3019782 1.7610084e-38
-3.0258811 12.499046 1.3027434 1.622787e-38
-2.9949741 12.509599 1.360997 1.5122254e-38
-3.0349674 12.761018 1.3031175 1.4936059e-38
-2.9927578 12.603064 1.320349 1.4384329e-38
-3.0415304 12.892243 1.3006952 1.4475438e-38
-3.0646563 13.177729 1.3069551 1.3553128e-38
-3.0697241 13.298828 1.2995996 1.3553123e-38
-3.0875282 13.497228 1.2999887 1.3646032e-38
-3.1127264 13.697179 1.3022619 1.4198844e-38
-3.1325936 13.891361 1.2966777 1.5028601e-38
-3.2096305 14.198441 1.2450795 1.8808627e-38
-3.1465631 14.092474 1.303071 1.6227146e-38
-3.2036667 14.36162 1.3938391 1.98235e-38
-3.1362205 14.319095 1.3033154 1.6871444e-38
-3.2044315 14.58927 1.3721859 1.9177407e-38
-3.1463006 14.499614 1.2994721 1.7793757e-38
-3.204823 14.747541 1.2848737 1.8624233e-38
-3.1675379 14.692916 1.2999946 1.8531319e-38
-3.2032528 14.962553 1.2905353 1.8623873e-38
-3.1882353 14.889648 1.3007221 1.871607e-38
-3.2132807 15.099868 1.3006815 1.8255452e-38
-3.1985536 15.047361 1.2849923 1.8347648e-38
-3.2315676 15.295858 1.299413 1.7149462e-38
-3.2449427 15.510763 1.2996206 1.6042756e-38
-3.2427526 15.731255 1.3008403 1.5119009e-38
-3.2541337 15.835032 1.3091415 1.511864e-38
-11.303715 17.266859 1.291785 9.4961457e-39
-11.109996 17.271795 1.3391483 8.112128e-39
-10.912004 17.270897 1.3525571 7.2816471e-39
-10.708523 17.275858 1.3590543 7.2812813e-39
-10.523882 17.263697 1.3316071 7.1890871e-39
-10.314882 17.307196 1.3284938 8.5734593e-39
-10.193704 17.346729 1.3413223 1.5489222e-38
-9.418479 17.383032 1.2741823 1.5476921e-38
-9.34268 17.393036 1.3020246 1.4376372e-38
-9.1128864 17.378662 1.299389 1.5669268e-38
-8.9548492 17.38184 1.3058705 1.5026067e-38
-9.4000206 17.402369 1.2643948 1.4466406e-38
-9.2516403 17.407675 1.3035709 1.2628279e-38
-9.1008768 17.43342 1.3006445 1.1153143e-38
-8.9087496 17.478647 1.298885 1.0139696e-38
-8.7037401 17.504879 1.2993996 1.4012648e-38
-8.4960508 17.525557 1.300632 1.3736064e-38
-8.2935591 17.555593 1.3009746 1.4012287e-38
-8.0972967 17.58209 1.2983918 1.4565822e-38
-7.922266 17.594116 1.2961886 1.5210475e-38
-7.7747936 17.597593 1.2639722 1.5763656e-38
-7.5702605 17.596174 1.3620278 1.6410454e-38
-7.3529525 17.593681 1.3198004 1.7332773e-38
-7.8542876 17.604624 1.3110011 1.5579262e-38
-7.7582154 17.607847 1.3077427 1.5948049e-38
-7.4931126 17.613489 1.2993116 1.6963269e-38
-7.3022938 17.639488 1.3004827 1.7977781e-38
-7.0985222 17.663246 1.297558 1.8807546e-38
-6.9138021 17.677414 1.3047596 1.9268169e-38
-6.6976662 17.681381 1.300858 1.9637312e-38
-6.531786 17.695 1.3046381 1.9545118e-38
-2.6044414 5.7191772 1.5051278 2.0467075e-38
-2.5886972 5.6888051 1.5034162 2.0005738e-38
-2.6107788 5.9381585 1.5054246 1.9729512e-38
-2.5981231 5.9063931 1.5048636 1.9913903e-38
-2.6232164 6.1816783 1.5117679 1.8991948e-38
-2.5980542 6.0440731 1.4989457 1.982206e-38
-2.6276462 6.2983284 1.4999877 1.8162545e-38
-2.643693 6.5365834 1.5090998 1.6594862e-38
-2.6500578 6.7002544 1.4994243 1.530412e-38
-2.6636167 6.9259529 1.5048139 1.36446e-38
-2.672745 7.0976548 1.5016913 1.2723e-38
-2.6899257 7.3671556 1.5104443 1.1431545e-38
-2.7012069 7.5705476 1.5657547 1.1431904e-38
-2.7050388 7.6956301 1.5029382 1.2260582e-38
-2.7179198 7.9538817 1.5066466 1.345985e-38
-2.838506 8.1454401 1.4213625 1.1978899e-38
-2.7249665 8.0943184 1.49739 1.4197772e-38
-2.8594084 8.2560625 1.427815 1.2440597e-38
-2.7370772 8.3022413 1.5028586 9.9567693e-39
-2.8036752 8.4219494 1.4478118 1.0321942e-38
-2.7563658 8.4498587 1.4980091 6.9099639e-39
-2.8135147 9.3860703 1.5010691 1.7781085e-38
-2.8239698 9.5578899 1.5082425 1.5752803e-38
-2.7986441 9.4580355 1.5468925 1.8241344e-38
-2.831825 9.6384869 1.4957274 1.7054391e-38
-2.8272245 9.9019117 1.5018497 1.9083774e-38
-2.8480475 10.11057 1.492277 1.5019928e-38
-2.8734319 10.281508 1.5010794 1.3180354e-38
-2.7966132 10.256851 1.4486036 1.7873999e-38
-2.8809874 10.536636 1.5035527 1.36446e-38
-2.8893204 10.699182 1.4991809 1.4382521e-38
-2.9107196 10.970785 1.5087847 1.5488514e-38
-2.9173539 11.09807 1.5016748 1.6502663e-38
-2.9304256 11.30008 1.4969105 1.8070704e-38
-2.9520454 11.494867 1.5003315 1.9638029e-38
-3.0039115 11.758482 1.5324819 2.0652903e-38
-2.9742994 11.691948 1.5045906 2.0652181e-38
-3.0036836 11.933659 1.4955355 2.0283759e-38
-2.9714956 11.913383 1.504734 2.019085e-38
-3.0104108 12.099739 1.5009006 1.945436e-38
-2.9829803 12.095057 1.4993932 1.9822422e-38
-3.0096948 12.327635 1.496922 1.8255817e-38
-2.9939399 12.244534 1.497095 1.8992663e-38
-3.0237331 12.491078 1.5011407 1.6965439e-38
-2.9949892 12.529982 1.4340369 1.5121895e-38
-3.0330563 12.748465 1.5079654 1.53974e-38
-2.9964588 12.728997 1.4731058 1.3553851e-38
-3.0428383 12.893635 1.4983938 1.4659831e-38
-3.0626726 13.163533 1.5104262 1.3369095e-38
-3.071389 13.296664 1.5002528 1.3276895e-38
-3.0904984 13.498607 1.4979101 1.3369805e-38
-3.1135137 13.697289 1.4998825 1.4107369e-38
-3.1332691 13.896027 1.5020989 1.5213714e-38
-3.1500447 14.100651 1.495658 1.6872876e-38
-3.2027802 14.360853 1.4145705 1.98235e-38
-3.1346517 14.301462 1.5043924 1.7609371e-38
-3.2028074 14.576357 1.5086826 2.0560344e-38
-3.1470251 14.492308 1.4989108 1.9084857e-38
-3.2035294 14.726462 1.501985 2.0652539e-38
-3.1697273 14.688408 1.4991412 2.0283037e-38
-3.202548 14.968191 1.5035791 2.0375953e-38
-3.1892755 14.892608 1.5012139 2.0559984e-38
-3.2135777 15.090601 1.5006154 1.9730584e-38
-3.1977575 15.014441 1.4943943 2.0099366e-38
-3.2295432 15.298035 1.499899 1.7979946e-38
-3.2463062 15.495184 1.5009071 1.641226e-38
-3.2408812 15.720178 1.5033236 1.5396316e-38
-3.2521322 15.835945 1.5031387 1.511936e-38
-11.456228 17.287775 1.5884559 7.8351782e-39
-11.321837 17.277088 1.5046719 8.4812665e-39
-11.095411 17.266365 1.46545 8.1124811e-39
-10.82475 17.264153 1.4885144 6.913575e-39
-10.697824 17.268534 1.52186 6.5455086e-39
-10.513684 17.264193 1.4980608 6.7298984e-39
-10.307828 17.307301 1.5116814 8.9415159e-39
-10.176272 17.340961 1.4516562 1.4844197e-38
-9.4143867 17.385845 1.4823617 1.6031174e-38
-9.3479958 17.392576 1.5061486 1.4192703e-38
-9.0910397 17.377216 1.4981019 1.5578151e-38
-8.9504213 17.382832 1.4909123 1.5304086e-38
-9.2536211 17.406773 1.498262 1.2629001e-38
-9.1008148 17.438173 1.4999082 1.0876195e-38
-8.8969965 17.482718 1.496507 1.0140421e-38
-8.6929598 17.505539 1.5013341 1.3643866e-38
-8.4937744 17.528576 1.4984781 1.3643503e-38
-8.2889929 17.553175 1.5004333 1.3827897e-38
-8.0977402 17.580437 1.5007836 1.4381432e-38
-7.936307 17.594015 1.5030187 1.5118283e-38
-7.7673035 17.594572 1.5430568 1.5579624e-38
-7.5704761 17.595375 1.5144027 1.6410455e-38
-7.3244295 17.591537 1.5076693 1.7609723e-38
-7.8575616 17.604902 1.491363 1.5487428e-38
-7.7482014 17.610786 1.5103774 1.5948409e-38
-7.4792213 17.612062 1.4992766 1.7148021e-38
-7.2916508 17.636858 1.4975882 1.8346566e-38
-7.0951548 17.661922 1.5006671 1.9360722e-38
-6.8987889 17.67897 1.5032123 1.9913899e-38
-6.6966419 17.679455 1.5014141 2.0375236e-38
-6.5139017 17.695471 1.5034775 2.0190847e-38
-2.6025729 5.5871234 1.7336544 2.2495378e-38
-2.5867434 5.5876079 1.741539 2.2126594e-38
-2.6050842 5.7082686 1.6998228 2.2587931e-38
-2.5873961 5.6826468 1.6955955 2.2034758e-38
-2.6118701 5.916985 1.702561 2.1942564e-38
-2.5973716 5.8604603 1.7649137 2.2864516e-38
-2.6255975 6.1596584 1.7062325 2.0651468e-38
-2.5975151 6.0587959 1.6968498 2.1850364e-38
-2.6298404 6.2939754 1.6997634 1.9360728e-38
-2.6465883 6.5194287 1.7032079 1.7148035e-38
-2.6528432 6.6959319 1.6989628 1.548851e-38
-2.6684427 6.9053178 1.7039601 1.36446e-38
-2.6750407 7.098628 1.6981999 1.2630082e-38
-2.6947758 7.3424091 1.7060425 1.1062758e-38
-2.7070515 7.5767927 1.7215132 1.0416306e-38
-3.0273585 7.7068567 1.6765882 1.4743664e-38
-2.7092011 7.6960669 1.6993605 1.1062036e-38
-2.7195079 7.936902 1.7047278 1.1615573e-38
-2.7253239 8.0983467 1.7012873 1.2629725e-38
-2.8048515 8.3393641 1.6830873 1.1336073e-38
-2.7372401 8.3021517 1.6959423 1.0048962e-38
-2.8037024 8.5195179 1.7926078 1.041231e-38
-2.7543826 8.4598808 1.6991389 7.5546158e-39
-2.8212528 9.3696508 1.7315571 1.8058769e-38
-2.8216548 9.5430822 1.7035071 1.6397451e-38
-2.7971311 9.4750948 1.7658741 1.9443145e-38
-2.8302064 9.6293039 1.7005591 1.7146586e-38
-2.8268275 9.916955 1.6123186 1.8991218e-38
-2.8535259 10.165229 1.679549 1.400542e-38
-2.87677 10.284286 1.7007176 1.2903413e-38
-2.7861993 10.280731 1.6688474 1.8151676e-38
-2.8798711 10.519368 1.7031901 1.3552404e-38
-2.88993 10.692833 1.7005659 1.4474358e-38
-2.9114296 10.955342 1.7034166 1.5764741e-38
-2.9185476 11.093 1.7003354 1.696364e-38
-3.0012414 11.320733 1.7067413 1.6966528e-38
-2.9304774 11.294452 1.7006011 1.9084135e-38
-3.0053442 11.514506 1.6264561 2.019229e-38
-2.9533832 11.492334 1.6968116 2.129719e-38
-3.0041287 11.716477 1.6919261 1.7885225e-38
-2.9695647 11.763908 1.7671818 2.2864519e-38
-3.0034788 11.951488 1.6696538 2.194292e-38
-2.9717445 11.894515 1.700393 2.0558912e-38
-3.0099316 12.105056 1.697347 2.0836575e-38
-2.9820843 12.094674 1.700876 2.175817e-38
-3.0083194 12.330834 1.7032588 1.9269248e-38
-2.9925632 12.246617 1.6979098 2.0467431e-38
-3.0239115 12.503973 1.6984084 1.7149468e-38
-2.9817696 12.555215 1.6400408 1.3924067e-38
-3.0343156 12.731423 1.7024451 1.5673627e-38
-2.9903474 12.707623 1.6576174 1.3186859e-38
-3.0440581 12.896102 1.7008983 1.447508e-38
-3.0636036 13.149014 1.7046402 1.3091788e-38
-3.0727992 13.296264 1.6994443 1.2815197e-38
-3.0912125 13.497127 1.7004668 1.2907747e-38
-3.1130347 13.69882 1.6985586 1.3829702e-38
-3.1329539 13.893596 1.6985575 1.5212995e-38
-3.1279199 14.191561 1.7384491 1.7148035e-38
-3.1345918 14.293495 1.6981956 1.825438e-38
-3.2014451 14.571459 1.7213821 2.2680484e-38
-3.1476834 14.505582 1.6993103 2.0559627e-38
-3.2078547 14.730017 1.6944466 2.2680125e-38
-3.1704731 14.698215 1.7004409 2.2311342e-38
-3.2022235 14.975241 1.6775982 2.212731e-38
-3.1880744 14.894637 1.7027818 2.2587929e-38
-3.2114177 15.113393 1.6955954 2.0929127e-38
-3.1974099 15.042168 1.7130277 2.2035116e-38
-3.2282517 15.298956 1.7042698 1.8532761e-38
-3.2434051 15.500605 1.6980212 1.6320064e-38
-3.2393079 15.702513 1.7034444 1.5580348e-38
-3.2507451 15.833742 1.6948491 1.410557e-38
-11.444113 17.264681 1.7504619 8.8496903e-39
-11.308281 17.26684 1.7094958 8.2961493e-39
-11.164406 17.276707 1.7183079 6.9110639e-39
-10.920488 17.266876 1.6909711 6.1738604e-39
-10.686316 17.262102 1.6991284 6.4486438e-39
-10.493925 17.269676 1.6831307 6.2656875e-39
-10.319901 17.313765 1.6963004 8.8496748e-39
-10.139488 17.347664 1.740237 1.5766875e-38
-9.9475012 17.342615 1.7374879 1.419738e-38
-9.6968727 17.324995 1.7253479 1.3367252e-38
-9.4241533 17.386786 1.6774284 9.4914597e-39
-9.3495989 17.393742 1.7019812 1.24428e-38
-9.0933676 17.380743 1.7002802 1.5301205e-38
-8.959095 17.383293 1.6989068 1.4934229e-38
-9.4308214 17.400541 1.6695915 7.0987188e-39
-9.261158 17.408869 1.701903 1.2721558e-38
-9.0940161 17.444368 1.7030897 1.0323024e-38
-8.9092064 17.478008 1.7054468 1.0231895e-38
-8.7070704 17.50795 1.6984314 1.3274725e-38
-8.4993887 17.530199 1.6982924 1.3457675e-38
-8.2980375 17.551971 1.7021302 1.3734262e-38
-8.1002588 17.579781 1.6980051 1.4379995e-38
-7.9288135 17.595049 1.7065922 1.5026087e-38
-7.7852201 17.596851 1.6948433 1.5762577e-38
-7.5726447 17.594425 1.7201138 1.6593767e-38
-7.339489 17.591507 1.7073537 1.7700479e-38
-7.8637319 17.603954 1.6956979 1.5394512e-38
-7.7335191 17.611347 1.7023169 1.6040245e-38
-7.4904428 17.611746 1.6967014 1.7238779e-38
-7.290781 17.636038 1.7032716 1.8438404e-38
-7.0938568 17.661102 1.69775 1.9545112e-38
-6.8954763 17.678566 1.6981344 2.0190127e-38
-6.7809787 17.685383 1.7253864 2.0283043e-38
-6.4942465 17.69496 1.7005447 2.0467075e-38
-6.3936195 17.701468 1.7619168 1.9914983e-38
-2.6025908 5.5722299 1.9110049 2.3232941e-38
-2.5864174 5.5743504 1.9072894 2.32333e-38
-2.6063721 5.7016068 1.8980762 2.341769e-38
-2.5869076 5.6923456 1.9022912 2.3325494e-38
-2.6118073 5.8976746 1.9041994 2.3325494e-38
-2.5974867 5.8476958 1.8522397 2.3325494e-38
-2.6257861 6.1462111 1.9050685 2.2864519e-38
-2.5966229 6.0495534 1.9170963 2.3325494e-38
-2.6440136 6.3836827 1.9853581 2.1849287e-38
-2.6465123 6.4984269 1.9027846 1.9452205e-38
-2.6638215 6.7865777 1.9305739 1.6040968e-38
-2.6695867 6.8912225 1.9010198 1.4197056e-38
-2.6782706 7.0989943 1.9009305 1.2353138e-38
-2.6950355 7.3283014 1.9040349 1.0786171e-38
-2.7044702 7.5630774 1.9075685 9.6787447e-39
-2.7105255 7.6972198 1.899955 9.4021536e-39
-2.9494772 7.9639363 1.9865667 1.1796688e-38
-2.7214761 7.917366 1.9025917 8.8489854e-39
-2.8052385 8.1446657 1.9671785 1.4843515e-38
-2.7270865 8.0965071 1.8996109 8.1117735e-39
-2.8050952 8.2526112 1.9352024 9.2180972e-39
-2.7390621 8.3003435 1.9001696 6.8210291e-39
-2.8088365 8.499217 1.9245 1.2712878e-38
-2.7520223 8.4690495 1.8999388 7.1854718e-39
-2.7731602 8.6261683 1.9516726 1.0132851e-38
-2.8146381 9.3954325 1.9090548 1.8521186e-38
-2.819809 9.5261374 1.9035655 1.9446054e-38
-2.7963431 9.4691648 1.8716778 1.9072199e-38
-2.8264024 9.6734276 1.9214876 1.7974182e-38
-2.8354421 9.8887577 1.9620007 1.6495797e-38
-2.8539443 10.109977 1.9310992 1.455932e-38
-2.8924317 10.382048 1.9523282 1.3827912e-38
-2.8809795 10.504781 1.8999553 1.3552047e-38
-2.7810392 10.452995 1.8398155 1.6035159e-38
-2.8902252 10.697235 1.8988626 1.4381804e-38
-2.9111226 10.938588 1.9057472 1.5303403e-38
-2.9176719 11.093949 1.8989047 1.714803e-38
-2.9303284 11.300138 1.9004061 2.0282677e-38
-2.9508338 11.496945 1.8988065 2.3141103e-38
-3.0016038 11.763687 1.9160672 2.2956715e-38
-2.9640346 11.785233 1.9405875 2.3325496e-38
-3.0021873 11.959456 1.8544047 2.3325852e-38
-2.970293 11.893181 1.8967458 2.3325494e-38
-3.0045786 12.14028 1.8767302 2.2772321e-38
-2.9808779 12.097175 1.8997625 2.3233299e-38
-3.0058706 12.329308 1.8948672 2.1389386e-38
-2.9920216 12.246098 1.9040532 2.2679766e-38
-3.0184419 12.492902 1.9023243 1.9084495e-38
-2.9958439 12.457509 1.9298979 1.8530966e-38
-3.0350368 12.715497 1.902653 1.7332061e-38
-3.0446842 12.896827 1.8990537 1.5765093e-38
-3.0648427 13.129054 1.9049363 1.4842064e-38
-2.9906297 13.078551 1.9924716 1.7700848e-38
-3.0739453 13.294182 1.8979433 1.3920465e-38
-3.0917485 13.495993 1.9000667 1.3643515e-38
-3.1105273 13.700788 1.8990263 1.4012655e-38
-3.1295738 13.89785 1.901867 1.511936e-38
-3.1285398 14.176545 1.9085124 1.7239514e-38
-3.1350036 14.29292 1.9013175 1.8714639e-38
-3.2011356 14.570691 1.8981693 2.3325494e-38
-3.1465654 14.499317 1.9000012 2.1573419e-38
-3.2071557 14.711057 1.9020709 2.341769e-38
-3.1668262 14.695009 1.8972094 2.3325494e-38
-3.2045982 14.985488 1.8617394 2.3233297e-38
-3.1850007 14.897283 1.8995 2.341733e-38
-3.2085466 15.11407 1.8924241 2.1666335e-38
-3.196666 15.053054 1.943405 2.3048907e-38
-3.2240007 15.309126 1.8990216 1.8071425e-38
-3.1807284 15.27612 1.9668943 1.6320429e-38
-3.2313936 15.586499 1.9532045 1.5948771e-38
-3.2376609 15.693232 1.8991715 1.5118651e-38
-3.2504914 15.833896 1.9031364 1.2537525e-38
-10.549615 17.19326 1.9609365 8.9411698e-39
-11.300862 17.257334 1.8156513 8.6653004e-39
-11.094344 17.258221 1.8339684 7.1908836e-39
-10.707706 17.252777 1.854238 5.713964e-39
-10.514407 17.251854 1.8945661 6.5430087e-39
-10.319614 17.312187 1.8362508 7.5593004e-39
-10.163503 17.344435 1.8285812 1.4749849e-38
-9.9792318 17.33149 1.8299669 1.5671451e-38
-9.4123583 17.388386 1.8744792 1.5753177e-38
-9.3781319 17.391743 1.8948677 1.5663505e-38
-9.1087236 17.381317 1.9024057 1.3918635e-38
-8.9541864 17.379595 1.8987919 1.3734975e-38
-9.411973 17.405056 1.9732796 1.6772374e-38
-9.2867661 17.409336 1.9025582 1.2719753e-38
-9.0876865 17.452059 1.9021385 9.4936233e-39
-8.9109898 17.484829 1.8972253 1.0139342e-38
-8.7017078 17.511814 1.8987697 1.3550232e-38
-8.505271 17.532476 1.8986343 1.4101607e-38
-8.2927828 17.554434 1.9002897 1.4840252e-38
-8.0963888 17.582048 1.902187 1.6500135e-38
-7.9279456 17.595816 1.9031208 1.7791593e-38
-7.7706256 17.597954 1.9754397 2.0187959e-38
-7.5578251 17.596848 1.9020609 1.9543673e-38
-7.3246527 17.591597 1.8971746 2.0374874e-38
-7.1994953 17.596746 1.8976609 2.129719e-38
-7.8526473 17.604582 1.8883874 1.7883793e-38
-7.713047 17.612734 1.9047529 1.898978e-38
-7.4835773 17.613146 1.9053829 2.0465988e-38
-7.2848744 17.636961 1.8948486 2.1572696e-38
-7.0952783 17.660883 1.9033453 2.1849641e-38
-6.8972697 17.677431 1.8983173 2.0927689e-38
-6.7702804 17.687994 1.9135282 2.0189407e-38
-6.4952826 17.691406 1.8999399 2.0006096e-38
-6.3715334 17.698717 1.9160646 1.8991224e-38
-2.605649 5.567575 2.1017869 2.2587572e-38
-2.5847354 5.5566616 2.1055863 2.2587572e-38
-2.6050465 5.7938485 2.127892 2.3325494e-38
-2.5957685 5.7933631 2.1675048 2.341769e-38
-2.6163573 5.8856006 2.1001105 2.3325494e-38
-2.5977023 5.8068452 2.0864694 2.341769e-38
-2.6267271 6.1271558 2.1035864 2.2218431e-38
-2.5966117 6.0387273 2.0805802 2.3233299e-38
-2.6428826 6.3864055 2.110095 1.8068911e-38
-2.6541455 6.4915953 2.1012242 1.7515375e-38
-2.6690984 6.7720032 2.1123672 1.6591976e-38
-2.6783531 6.8929677 2.1000152 1.8343329e-38
-2.6821411 7.1009221 2.095741 1.9174529e-38
-2.700943 7.3026714 2.1073661 1.8528441e-38
-2.7098844 7.5446606 2.109803 1.8066744e-38
-3.0298357 7.6945639 2.1252136 1.3450823e-38
-2.7175367 7.6926761 2.0964689 1.5762577e-38
-2.7256196 7.9011393 2.1027637 1.6592342e-38
-2.8589864 8.1546068 2.06249 1.7885578e-38
-2.7321887 8.0955334 2.0984316 1.4564757e-38
-2.8038473 8.3540802 2.0900457 9.9535043e-39
-2.7412663 8.2974768 2.1002531 1.4656949e-38
-2.8031225 8.5618801 2.1483626 1.1613377e-38
-2.7522585 8.4699383 2.0964715 1.0874035e-38
-2.8017786 8.6592426 2.1692643 1.1982886e-38
-2.7803419 8.7472649 2.1770728 1.2811225e-38
-2.8018441 8.9021091 2.1732442 1.4655507e-38
-2.7872252 8.8893576 2.1733899 1.3088527e-38
-2.8048234 9.1265383 2.1752958 1.3549872e-38
-2.7933965 9.0734119 2.1707964 1.3641706e-38
-2.8100395 9.3006382 2.1694467 1.2627206e-38
-2.7975469 9.2613802 2.156323 1.152192e-38
-2.8215318 9.510788 2.1015818 1.4373854e-38
-2.7968211 9.4702806 2.1434596 1.2622138e-38
-2.8293273 9.6947403 2.0974751 1.6036625e-38
-2.8365486 9.8916836 2.0991213 1.8159296e-38
-2.8541646 10.087222 2.0953476 1.9634428e-38
-2.8816235 10.388543 2.1106219 1.6407584e-38
-2.8873994 10.497628 2.1016872 1.8344772e-38
-2.8929188 10.694028 2.0985215 1.7976711e-38
-2.9141212 10.925445 2.1022944 1.6593783e-38
-2.9230134 11.097008 2.0995486 1.6317553e-38
-2.929848 11.29955 2.1021383 1.816182e-38
-3.0069835 11.569531 2.1626201 1.3460932e-38
-2.9480834 11.494536 2.1010907 2.175745e-38
-3.0028203 11.718773 2.1278021 1.7426059e-38
-2.9635231 11.777409 2.1073465 2.3325494e-38
-3.0031073 11.958643 2.0397146 2.2956712e-38
-2.9752231 11.894897 2.1016943 2.3325494e-38
-3.0049701 12.155069 2.0933115 2.1573777e-38
-2.9804111 12.09925 2.0961063 2.2956712e-38
-3.0042138 12.344663 2.0965059 2.000609e-38
-2.9936383 12.260214 2.1003129 2.0928049e-38
-3.0136778 12.50447 2.1006229 1.9636587e-38
-2.9980404 12.446011 2.1354501 1.8438047e-38
-3.0373886 12.695786 2.1031036 1.5211201e-38
-2.9954731 12.674556 2.1006927 2.1204633e-38
-3.0482686 12.898341 2.1006501 1.6777441e-38
-2.9929237 12.813015 2.1084611 2.0652547e-38
-3.0680549 13.117598 2.0980809 1.5394871e-38
-2.9901438 13.078193 2.0043387 1.8161826e-38
-3.079087 13.299834 2.101666 1.806818e-38
-3.0926852 13.493743 2.0992708 1.9451836e-38
-3.1059427 13.696017 2.098043 1.7609007e-38
-3.1253536 13.896508 2.0991445 1.5581063e-38
-3.1262383 14.169356 2.1032069 1.7147675e-38
-3.2016456 14.305861 2.0294194 2.3417687e-38
-3.13994 14.293699 2.1044095 1.8253663e-38
-3.2034252 14.578476 2.1247845 2.3325494e-38
-3.1484544 14.500077 2.0978873 2.1296833e-38
-3.2082391 14.723125 2.0952449 2.3325852e-38
-3.1639688 14.694942 2.0989408 2.3325494e-38
-3.219872 14.903766 2.101954 2.2773041e-38
-3.1789153 14.892649 2.0976214 2.3325494e-38
-3.2047596 15.129739 2.0779207 2.1573777e-38
-3.1928101 15.062128 2.1134379 2.295671e-38
-3.2172496 15.289261 2.0999625 1.8716072e-38
-3.1972198 15.219706 2.074506 1.9730225e-38
-3.225266 15.586859 2.0999629 1.5303041e-38
-3.2412083 15.689356 2.1015518 1.4564753e-38
-3.2533457 15.830041 2.096946 1.7421727e-38
-10.884975 17.176588 2.1317708 7.7436944e-39
-10.689675 17.183435 2.0839291 8.389431e-39
-10.545094 17.191534 2.03178 8.6649459e-39
-10.860225 17.294758 2.185581 1.0415225e-38
-10.694858 17.309355 2.1631403 1.14301e-38
-10.485351 17.327862 2.1627963 1.2445332e-38
-10.317929 17.341732 2.1522517 1.3551318e-38
-10.07145 17.35803 2.1540964 1.4380357e-38
-9.8867149 17.375784 2.1350615 1.4749499e-38
-9.7375259 17.386541 2.1612811 1.4750582e-38
-9.4150991 17.391132 2.087944 7.3727651e-39
-9.370512 17.39307 2.1174712 8.6645941e-39
-9.1208 17.38271 2.0957403 1.3181077e-38
-8.9453697 17.38258 2.0950568 1.3365107e-38
-9.8068504 17.456879 2.1487372 9.1248408e-39
-9.7702427 17.401285 2.1757369 1.4566552e-38
-9.4045238 17.402578 2.1064594 9.1252108e-39
-9.2868605 17.411491 2.0955491 1.0599618e-38
-9.0706472 17.454506 2.1017754 9.0319249e-39
-8.9076929 17.489477 2.0957689 9.7705591e-39
-8.6939945 17.516819 2.1062617 1.401229e-38
-8.493494 17.538795 2.098063 1.5117199e-38
-8.2990503 17.55793 2.0989611 1.6039514e-38
-8.1025286 17.579287 2.1000946 1.6592324e-38
-7.9152493 17.594437 2.1129901 1.5854763e-38
-7.7497916 17.597429 2.1429245 1.447183e-38
-7.5857859 17.595383 2.0884519 1.8067461e-38
-7.3357325 17.591694 2.1010091 1.852988e-38
-7.8612909 17.603462 2.0660956 1.7514284e-38
-7.6813583 17.610962 2.1002324 1.5578182e-38
-7.5038013 17.614935 2.1012871 1.7791949e-38
-7.297884 17.633022 2.1009645 1.7699396e-38
-7.102613 17.657949 2.095021 1.7607203e-38
-6.8935485 17.6717 2.1000466 1.7238784e-38
-6.7448926 17.682968 2.1089647 1.7054395e-38
-6.4950104 17.683847 2.0999429 1.7147311e-38
-6.3478451 17.693052 2.1072397 1.5394149e-38
-2.6074779 5.5724492 2.2190778 2.1297195e-38
-2.5802467 5.5588379 2.2213745 2.175781e-38
-2.6149426 5.7206645 2.2536163 2.2956713e-38
-2.5912833 5.7947063 2.2264323 2.3325494e-38
-2.620707 5.9023795 2.2468851 2.3048909e-38
-2.5966249 5.8114834 2.2314887 2.3325494e-38
-2.6279974 6.1372514 2.2434936 1.9637315e-38
-2.5944498 6.0440178 2.2297757 2.2403539e-38
-2.6315258 6.3880754 2.2313776 1.5948772e-38
-2.6562679 6.4964242 2.2591772 1.3552039e-38
-2.662708 6.7726822 2.2464747 1.2261303e-38
-2.6851153 6.89955 2.2742827 1.1984354e-38
-2.6934435 7.1029563 2.3016062 1.2352052e-38
-2.7052195 7.3065286 2.2750738 1.2905227e-38
-2.707803 7.5488472 2.2462535 1.4839899e-38
-2.7272403 7.7001777 2.2774284 1.6684164e-38
-2.7278075 7.9223714 2.2360272 1.9541871e-38
-2.7434747 8.1086473 2.2766922 1.8897224e-38
-2.810689 8.341341 2.397491 1.4841322e-38
-2.7515628 8.2903929 2.2950964 1.7515014e-38
-2.8036335 8.5598106 2.2686865 1.5121162e-38
-2.7557707 8.4582548 2.2987351 1.5854407e-38
-2.8067687 8.7518225 2.3687584 1.3452973e-38
-2.7795038 8.7602253 2.2137377 2.1387941e-38
-2.8038611 8.9714384 2.2346687 1.8899381e-38
-2.7858059 8.9128761 2.2463293 2.277196e-38
