# .PCD v0.7 - Point Cloud Data file format
VERSION 0.7
FIELDS x y z rgb
SIZE 4 4 4 4
TYPE F F F F
COUNT 1 1 1 1
WIDTH 1073
HEIGHT 1
VIEWPOINT 0 0 0 1 0 0 0
POINTS 1073
DATA ascii
-5.2495403 17.913412 1.941156 1.1709558e-38
-5.2386794 17.914133 1.9407195 1.1340062e-38
-5.2278185 17.914856 1.9402825 1.1801041e-38
-5.2169576 17.915577 1.9398459 1.1616286e-38
-5.2060966 17.916298 1.9394091 1.1616286e-38
-5.1952357 17.917021 1.9389724 1.1708482e-38
-5.1843748 17.917742 1.9385356 1.1708482e-38
-5.1735139 17.918463 1.9380988 1.1708482e-38
-5.162653 17.919184 1.9376622 1.1708482e-38
-5.151792 17.919907 1.9372255 1.1616286e-38
-5.1409311 17.920628 1.9367888 1.1616286e-38
-5.1300702 17.921349 1.936352 1.1616286e-38
-5.1192093 17.922071 1.9359152 1.1616286e-38
-5.1083484 17.922792 1.9354784 1.1616286e-38
-5.0974874 17.923513 1.9350417 1.1616286e-38
-5.086627 17.924234 1.9346051 1.1616286e-38
-5.0757661 17.924957 1.9341682 1.1616286e-38
-5.0834436 18.023289 1.9415318 1.1616286e-38
-5.0723948 18.024023 1.9410872 1.161593e-38
-5.0613465 18.024755 1.940643 1.1616652e-38
-5.0502977 18.02549 1.9401987 1.1524101e-38
-5.0392494 18.026224 1.9397542 1.1431905e-38
-5.0282006 18.026958 1.9393101 1.1339709e-38
-5.0171523 18.027693 1.9388657 1.1340065e-38
-5.0061035 18.028425 1.9384216 1.1432261e-38
-4.9950547 18.02916 1.9379772 1.1432258e-38
-4.9840064 18.029894 1.9375328 1.1432258e-38
-4.9729576 18.030628 1.9370886 1.1432255e-38
-4.9619093 18.031363 1.9366441 1.1432255e-38
-4.9508605 18.032097 1.9362 1.1432611e-38
-4.9398122 18.032831 1.935756 1.1432611e-38
-4.9287634 18.033564 1.9353114 1.143261e-38
-4.9177146 18.034298 1.9348669 1.143261e-38
-4.9066663 18.035032 1.9344229 1.143261e-38
-4.8956175 18.035767 1.9339784 1.143261e-38
-4.8845692 18.036501 1.933534 1.1340416e-38
-4.8735204 18.037233 1.9330899 1.134006e-38
-4.8624721 18.037968 1.9326458 1.134006e-38
-4.8368263 17.94083 1.9245596 1.134006e-38
-4.8403745 18.039436 1.9317569 1.1432255e-38
-4.8151045 17.942272 1.9236859 1.1432255e-38
-4.8042436 17.942995 1.9232495 1.1432611e-38
-4.7933826 17.943716 1.9228127 1.1432611e-38
-4.7825217 17.944439 1.9223759 1.1524807e-38
-4.7716608 17.94516 1.9219391 1.1524807e-38
-4.7607999 17.945881 1.9215024 1.1524805e-38
-4.749939 17.946602 1.9210658 1.1617001e-38
-4.751986 18.045307 1.9282026 1.1524805e-38
-4.7409372 18.046041 1.9277582 1.1524805e-38
-4.7298889 18.046776 1.9273139 1.143261e-38
-4.7188401 18.04751 1.9268696 1.1340414e-38
-4.7077918 18.048244 1.9264252 1.143261e-38
-4.696743 18.048977 1.925981 1.143261e-38
-4.6856942 18.049711 1.9255368 1.1524805e-38
-4.6746459 18.050446 1.9250925 1.1524805e-38
-4.6521907 17.953096 1.9171346 1.1524805e-38
-4.6413298 17.953817 1.9166979 1.1524805e-38
-4.6304688 17.95454 1.9162612 1.143261e-38
-4.6196079 17.955261 1.9158244 1.143261e-38
-4.608747 17.955982 1.9153876 1.1524805e-38
-4.5978861 17.956703 1.9149511 1.1524805e-38
-4.5870256 17.957426 1.9145143 1.1617001e-38
-4.5761647 17.958147 1.9140774 1.1617001e-38
-4.5653038 17.958868 1.9136406 1.1709197e-38
-4.5544429 17.959589 1.9132038 1.1709197e-38
-4.5346727 17.868498 1.9058137 1.1709197e-38
-4.532721 17.961033 1.9123303 1.1709197e-38
-4.5218601 17.961754 1.9118937 1.1801038e-38
-4.5109992 17.962477 1.9114569 1.1801038e-38
-4.5001383 17.963198 1.9110202 1.1708842e-38
-4.4892774 17.963919 1.9105835 1.1616647e-38
-4.4868197 18.062923 1.9175395 1.1524807e-38
-4.4757714 18.063658 1.9170952 1.1432611e-38
-4.4647226 18.064392 1.9166509 1.1340416e-38
-4.4536738 18.065125 1.9162064 1.1340416e-38
-4.4426255 18.065859 1.9157623 1.143261e-38
-4.4241118 17.968248 1.907963 1.1340414e-38
-4.4132509 17.968969 1.9075263 1.115602e-38
-4.40239 17.969692 1.9070895 1.1063825e-38
-4.3915291 17.970413 1.9066529 1.0971629e-38
-4.3806682 17.971134 1.9062161 1.0879433e-38
-4.3698072 17.971855 1.9057794 1.0602846e-38
-4.3589463 17.972578 1.9053426 1.0418455e-38
-4.3480854 17.973299 1.9049057 1.0877997e-38
-4.337225 17.974022 1.904469 1.0693606e-38
-4.326364 17.974743 1.9040322 1.0509214e-38
-4.3155031 17.975464 1.9035957 1.0509214e-38
-4.3046422 17.976185 1.9031588 1.060213e-38
-4.2937813 17.976906 1.9027221 1.0878717e-38
-4.2829204 17.977629 1.9022851 1.1063108e-38
-4.2720594 17.97835 1.9018483 1.1155304e-38
-4.2611985 17.979073 1.9014118 1.0141152e-38
-4.2503376 17.979794 1.9009748 1.060213e-38
-4.2394767 17.980515 1.9005382 1.1156023e-38
-4.2286158 17.981236 1.9001013 1.1617001e-38
-4.2177548 17.981956 1.8996645 1.1801392e-38
-4.2068939 17.982679 1.8992279 1.1893588e-38
-4.196033 17.9834 1.8987911 1.1893588e-38
-4.1851721 17.984121 1.8983544 1.1985784e-38
-4.1743112 17.984844 1.8979174 1.2078698e-38
-4.1634502 17.985565 1.8974808 1.2078698e-38
-4.1525893 17.986286 1.8970441 1.2170894e-38
-4.1417284 17.987007 1.8966073 1.2170894e-38
-4.1308675 17.98773 1.8961706 1.2263089e-38
-4.120007 17.988451 1.8957338 1.2355285e-38
-4.1091461 17.989172 1.8952973 1.2447481e-38
-4.0982852 17.989895 1.8948605 1.2447481e-38
-4.0874243 17.990616 1.8944237 1.2447481e-38
-4.0765634 17.991337 1.8939869 1.2447481e-38
-4.0657024 17.99206 1.8935502 1.2631872e-38
-4.0548415 17.992781 1.8931134 1.2724068e-38
-4.0439806 17.993502 1.8926766 1.2816263e-38
-4.0331197 17.994223 1.89224 1.2816263e-38
-4.0222588 17.994944 1.8918033 1.2816263e-38
-4.0113978 17.995667 1.8913665 1.2815906e-38
-4.0005369 17.996387 1.8909297 1.2632596e-38
-3.989676 17.99711 1.8904929 1.263224e-38
-3.9788151 17.997831 1.8900564 1.2724436e-38
-3.9683449 17.90612 1.8830398 1.2816632e-38
-3.9570932 17.999273 1.8891828 1.2909183e-38
-3.946974 17.907541 1.8821803 1.3001379e-38
-3.9362886 17.908251 1.8817506 1.3276884e-38
-3.9256032 17.90896 1.881321 1.3369437e-38
-3.9149177 17.90967 1.8808913 1.3368715e-38
-3.9042323 17.910381 1.8804613 1.3553107e-38
-3.8935471 17.911091 1.8800319 1.3737498e-38
-3.8828614 17.9118 1.8796021 1.3829693e-38
-3.8721762 17.91251 1.8791726 1.3921526e-38
-3.8614905 17.913219 1.8787428 1.3921526e-38
-3.850805 17.913929 1.8783131 1.4013722e-38
-3.8401198 17.91464 1.8778834 1.4014441e-38
-3.8294342 17.91535 1.8774537 1.4014441e-38
-3.8187487 17.916059 1.8770239 1.3922605e-38
-3.8080635 17.916769 1.8765943 1.4014801e-38
-3.7973781 17.917479 1.8761646 1.4014801e-38
-3.7866926 17.91819 1.8757349 1.4106999e-38
-3.7760072 17.9189 1.8753052 1.4199195e-38
-3.7689278 17.829901 1.8686348 1.4199195e-38
-3.7546363 17.920319 1.8744458 1.429139e-38
-3.7439508 17.921028 1.874016 1.4383589e-38
-3.7332654 17.921738 1.8735865 1.4383589e-38
-3.72258 17.922447 1.8731567 1.4475784e-38
-3.7163503 17.833395 1.8665204 1.456798e-38
-3.7058346 17.834093 1.8660977 1.4567623e-38
-3.6905236 17.924578 1.8718677 1.4659818e-38
-3.6848035 17.835489 1.865252 1.4752014e-38
-3.674288 17.836189 1.8648291 1.4752014e-38
-3.6637726 17.836887 1.8644062 1.4752014e-38
-3.6532569 17.837585 1.8639833 1.484421e-38
-3.6427414 17.838285 1.8635604 1.4936405e-38
-3.626411 17.928837 1.8692893 1.5028601e-38
-3.6157258 17.929546 1.8688598 1.5028601e-38
-3.6050403 17.930256 1.8684301 1.5028601e-38
-3.5878227 18.023806 1.874333 1.5028601e-38
-3.576962 18.024529 1.8738962 1.5028601e-38
-3.5661011 18.025249 1.8734595 1.5120797e-38
-3.5552399 18.02597 1.8730228 1.5305188e-38
-3.5443792 18.026691 1.872586 1.5397383e-38
-3.5335183 18.027414 1.8721493 1.5397383e-38
-3.5302422 17.935226 1.8654222 1.5305188e-38
-3.5117965 18.028856 1.8712759 1.5305188e-38
-3.5088713 17.936646 1.8645627 1.5305188e-38
-3.4981859 17.937355 1.8641331 1.5397383e-38
-3.4875004 17.938066 1.8637034 1.5489579e-38
-3.4768152 17.938776 1.8632737 1.5489936e-38
-3.4744928 17.849463 1.8567947 1.5582132e-38
-3.4639771 17.850161 1.8563716 1.5674328e-38
-3.4534616 17.850859 1.8559488 1.5766523e-38
-3.4429462 17.851559 1.8555262 1.5766523e-38
-3.4324305 17.852257 1.8551033 1.5766523e-38
-3.4219151 17.852955 1.8546804 1.5674328e-38
-3.4113996 17.853653 1.8542576 1.5766523e-38
-3.4008839 17.854351 1.8538346 1.5766523e-38
-3.3903685 17.855049 1.8534117 1.5858719e-38
-3.379853 17.855749 1.8529888 1.5950915e-38
-3.3790846 17.769133 1.8467721 1.5950915e-38
-3.3687334 17.769821 1.8463559 1.604311e-38
-3.3583822 17.770508 1.8459396 1.604311e-38
-3.3480315 17.771196 1.8455235 1.604311e-38
-3.3272753 17.859241 1.8508747 1.6134584e-38
-3.3273294 17.772572 1.844691 1.6134584e-38
-3.3169785 17.77326 1.8442746 1.622678e-38
-3.2957287 17.861338 1.8496058 1.6318975e-38
-3.2852132 17.862036 1.849183 1.6318975e-38
-3.2859256 17.775322 1.8430259 1.6411171e-38
-3.2755747 17.776011 1.8426096 1.6411174e-38
-3.2536666 17.864132 1.8479146 1.6411174e-38
-3.2431512 17.86483 1.8474917 1.6411175e-38
-3.2326353 17.86553 1.8470688 1.6503371e-38
-3.2341709 17.778761 1.8409448 1.6503371e-38
-3.2116044 17.866928 1.846223 1.6503371e-38
-3.2010889 17.867624 1.8458002 1.6503371e-38
-3.2031178 17.780823 1.8396959 1.6411175e-38
-3.1927669 17.781511 1.8392797 1.6318624e-38
-3.182416 17.782198 1.8388635 1.6318978e-38
-3.1720648 17.782887 1.8384472 1.6319329e-38
-3.1617138 17.783573 1.8380311 1.6319327e-38
-3.1513629 17.784262 1.8376148 1.6319329e-38
-3.141012 17.784948 1.8371985 1.6411524e-38
-3.130661 17.785637 1.8367823 1.6411527e-38
-3.1203101 17.786324 1.8363661 1.6411527e-38
-3.1099591 17.787012 1.8359499 1.6411171e-38
-3.0996082 17.787699 1.8355336 1.6411171e-38
-3.089257 17.788387 1.8351172 1.6503367e-38
-3.0789061 17.789074 1.8347009 1.6227136e-38
-3.0685551 17.789762 1.8342848 1.650372e-38
-3.0725954 17.705498 1.8284522 1.6595915e-38
-3.0624039 17.706175 1.8280421 1.6318967e-38
-3.0522125 17.706852 1.8276325 1.641116e-38
-3.0569286 17.622328 1.8218116 1.6226769e-38
-3.0468972 17.622993 1.8214082 1.5396285e-38
-3.0368655 17.623661 1.8210049 1.2352383e-38
-3.0114467 17.70956 1.8259932 1.1430061e-38
-3.0168023 17.624992 1.8201981 1.1707004e-38
-3.0067708 17.62566 1.8197945 1.1799195e-38
-2.9967394 17.626328 1.8193913 1.2536397e-38
-2.9706807 17.712269 1.8243539 1.3366158e-38
-2.9766762 17.627659 1.8185843 1.2721151e-38
-2.9666445 17.628326 1.818181 1.3089937e-38
-2.9566131 17.628992 1.8177776 1.27208e-38
-2.9465816 17.629658 1.8173742 1.2905194e-38
-5.4327049 17.809256 1.9312072 8.8634132e-39
-5.4220195 17.809965 1.9307774 8.863416e-39
-5.411334 17.810675 1.9303479 9.4155108e-39
-5.4006486 17.811384 1.9299181 9.9679685e-39
-5.3899632 17.812094 1.9294884 1.0427868e-38
-5.3792777 17.812805 1.9290586 1.0703727e-38
-5.3685923 17.813515 1.9286288 9.503012e-39
-5.3579068 17.814224 1.9281993 9.5015617e-39
-5.3472214 17.814934 1.9277695 9.3150096e-39
-5.3365359 17.815643 1.92734 9.0362591e-39
-5.3258505 17.816353 1.9269104 8.2968878e-39
-5.3368907 17.908031 1.9337735 7.4664013e-39
-5.3260303 17.908754 1.9333367 7.3738413e-39
-5.3151693 17.909475 1.9329 7.6507841e-39
-5.3043084 17.910196 1.9324632 7.3745574e-39
-5.2934475 17.910919 1.9320264 6.6380713e-39
-5.2825866 17.91164 1.9315898 9.1277163e-39
-5.2717257 17.912361 1.9311528 1.0972348e-38
-5.2608647 17.913084 1.9307164 1.1525167e-38
-5.2500038 17.913805 1.9302796 1.1617363e-38
-5.2391429 17.914526 1.9298427 1.115639e-38
-5.228282 17.915249 1.9294059 1.1801041e-38
-5.2174211 17.915968 1.9289691 1.1616286e-38
-5.2065601 17.916691 1.9285326 1.1616286e-38
-5.1956992 17.917412 1.9280956 1.1708482e-38
-5.1848383 17.918135 1.927659 1.1708482e-38
-5.1739774 17.918856 1.9272223 1.1708482e-38
-5.1631165 17.919577 1.9267855 1.1708482e-38
-5.1522555 17.920298 1.9263487 1.1616286e-38
-5.1413946 17.921021 1.9259119 1.1616286e-38
-5.1305337 17.921741 1.9254752 1.1616286e-38
-5.1196728 17.922462 1.9250387 1.1616286e-38
-5.1088119 17.923185 1.9246019 1.1616286e-38
-5.0979509 17.923906 1.924165 1.1616286e-38
-5.08709 17.924627 1.9237281 1.1616286e-38
-5.0762296 17.925348 1.9232917 1.1616286e-38
-5.0839152 18.023687 1.9304669 1.1616286e-38
-5.0728664 18.024422 1.9300225 1.161593e-38
-5.0618176 18.025156 1.9295784 1.1616652e-38
-5.0507693 18.025888 1.929134 1.1524101e-38
-5.0397205 18.026623 1.9286895 1.1431905e-38
-5.0286722 18.027357 1.9282457 1.1339709e-38
-5.0176234 18.028091 1.9278011 1.1340065e-38
-5.0065751 18.028826 1.9273567 1.1432261e-38
-4.9955263 18.02956 1.9269127 1.1432258e-38
-4.984478 18.030293 1.9264683 1.1432258e-38
-4.9734292 18.031027 1.9260241 1.1432255e-38
-4.9623804 18.031761 1.9255797 1.1432255e-38
-4.9513321 18.032495 1.9251355 1.1432611e-38
-4.9402833 18.03323 1.9246911 1.1432611e-38
-4.929235 18.033962 1.9242467 1.143261e-38
-4.9181862 18.034697 1.9238025 1.143261e-38
-4.9071379 18.035431 1.9233581 1.1432607e-38
-4.8960891 18.036165 1.9229137 1.143261e-38
-4.8850403 18.0369 1.9224695 1.124822e-38
-4.873992 18.037634 1.9220253 1.1247864e-38
-4.8629432 18.038368 1.9215809 1.134006e-38
-4.8518949 18.039101 1.9211369 1.134006e-38
-4.8408461 18.039835 1.9206923 1.1432255e-38
-4.815568 17.942665 1.9128094 1.1432255e-38
-4.8047066 17.943386 1.9123726 1.1524807e-38
-4.7938461 17.944109 1.911936 1.1524807e-38
-4.7829852 17.94483 1.911499 1.1524807e-38
-4.7721243 17.945553 1.9110625 1.1617002e-38
-4.7612634 17.946274 1.9106258 1.1617001e-38
-4.7504025 17.946995 1.910189 1.1617001e-38
-4.7524576 18.045708 1.9171377 1.1524805e-38
-4.7414088 18.04644 1.9166937 1.1524805e-38
-4.73036 18.047174 1.9162494 1.143261e-38
-4.7193117 18.047909 1.9158051 1.1340414e-38
-4.7082629 18.048643 1.9153608 1.143261e-38
-4.6972146 18.049377 1.9149165 1.1524805e-38
-4.6861658 18.050112 1.9144721 1.1524805e-38
-4.6751175 18.050844 1.9140278 1.1617001e-38
-4.6526542 17.953489 1.906258 1.1617001e-38
-4.6417933 17.95421 1.9058213 1.1524805e-38
-4.6309323 17.954931 1.9053845 1.1524805e-38
-4.6200714 17.955654 1.9049479 1.143261e-38
-4.6092105 17.956375 1.9045111 1.1617001e-38
-4.5983496 17.957096 1.9040743 1.1617001e-38
-4.5874887 17.957817 1.9036375 1.1617001e-38
-4.5766277 17.95854 1.9032007 1.1709197e-38
-4.5657673 17.959261 1.9027642 1.1709197e-38
-4.5549064 17.959982 1.9023273 1.1709197e-38
-4.5440454 17.960703 1.9018905 1.1709197e-38
-4.5331845 17.961426 1.9014539 1.1709197e-38
-4.5223236 17.962147 1.901017 1.1801038e-38
-4.5114627 17.96287 1.9005804 1.1708842e-38
-4.5006018 17.963591 1.9001434 1.1708842e-38
-4.4897408 17.964312 1.8997068 1.1616647e-38
-4.4872913 18.063324 1.9064747 1.1524807e-38
-4.4762425 18.064056 1.9060304 1.1524807e-38
-4.4651942 18.064791 1.905586 1.1432611e-38
-4.4541454 18.065525 1.9051419 1.1432611e-38
-4.4354362 17.967918 1.8975233 1.1524805e-38
-4.4245753 17.968641 1.8970861 1.1340414e-38
-4.4137144 17.969362 1.8966497 1.1248216e-38
-4.4028535 17.970083 1.8962129 1.115602e-38
-4.3919926 17.970806 1.895776 1.1063825e-38
-4.3811316 17.971527 1.8953393 1.0879433e-38
-4.3702707 17.972248 1.8949025 1.0695398e-38
-4.3594098 17.972969 1.8944659 1.0418455e-38
-4.3547082 18.072132 1.9011432 1.0785801e-38
-4.337688 17.974413 1.8935924 1.060141e-38
-4.326827 17.975134 1.8931556 1.0417019e-38
-4.3159666 17.975857 1.8927188 1.0417019e-38
-4.3051057 17.976578 1.8922821 1.060141e-38
-4.2942448 17.977299 1.891845 1.0877997e-38
-4.2833838 17.978022 1.8914086 1.0786522e-38
-4.2725229 17.978743 1.8909718 1.0786522e-38
-4.261662 17.979464 1.890535 1.0786522e-38
-4.2508011 17.980186 1.8900982 1.1155304e-38
-4.2399402 17.980907 1.8896614 1.1524805e-38
-4.2290792 17.981628 1.8892249 1.1893588e-38
-4.2182183 17.982349 1.8887879 1.2077979e-38
-4.2073574 17.98307 1.8883512 1.2077979e-38
-4.1964965 17.983793 1.8879144 1.2077979e-38
-4.1856356 17.984514 1.8874778 1.2077979e-38
-4.1747746 17.985235 1.887041 1.2170891e-38
-4.1639137 17.985958 1.8866041 1.2170891e-38
-4.1530528 17.986679 1.8861675 1.2263087e-38
-4.1421919 17.9874 1.8857305 1.2355282e-38
-4.131331 17.988123 1.8852941 1.2447478e-38
-4.12047 17.988844 1.8848573 1.2447478e-38
-4.1096096 17.989565 1.8844205 1.2539673e-38
-4.0987487 17.990288 1.8839837 1.2539673e-38
-4.0878873 17.991009 1.8835469 1.2447478e-38
-4.0770268 17.99173 1.8831103 1.2539673e-38
-4.0649695 17.900118 1.876206 1.2631869e-38
-4.0542841 17.900829 1.8757764 1.2724065e-38
-4.0444441 17.993895 1.8818001 1.281626e-38
-4.0335832 17.994616 1.8813632 1.2908456e-38
-4.0227222 17.995338 1.8809263 1.2908456e-38
-4.0118613 17.996059 1.8804896 1.2908459e-38
-4.0010004 17.99678 1.8800529 1.2724436e-38
-3.9901395 17.997501 1.8796161 1.2725158e-38
-3.9792786 17.998224 1.8791795 1.2908827e-38
-3.9688008 17.906507 1.8723387 1.3001023e-38
-3.9581153 17.907217 1.871909 1.3093575e-38
-3.9474299 17.907927 1.8714794 1.318577e-38
-3.9367447 17.908636 1.8710496 1.3461275e-38
-3.9260592 17.909346 1.87062 1.3461633e-38
-3.9153736 17.910057 1.8701904 1.3460911e-38
-3.9046884 17.910767 1.8697606 1.3645302e-38
-3.8940029 17.911476 1.8693309 1.3830049e-38
-3.8833175 17.912186 1.8689011 1.3922245e-38
-3.872632 17.912895 1.8684715 1.4105917e-38
-3.8598087 18.006161 1.8743752 1.4105917e-38
-3.8512611 17.914316 1.8676121 1.4198113e-38
-3.8405757 17.915026 1.8671825 1.4198832e-38
-3.8298903 17.915735 1.8667527 1.4014438e-38
-3.8192048 17.916445 1.8663231 1.3922961e-38
-3.8085194 17.917156 1.8658931 1.4015157e-38
-3.7978339 17.917866 1.8654636 1.4107352e-38
-3.7871487 17.918575 1.8650339 1.4199192e-38
-3.7764633 17.919285 1.8646044 1.4199192e-38
-3.7657776 17.919994 1.8641746 1.4291388e-38
-3.7550924 17.920704 1.8637447 1.4291388e-38
-3.7444069 17.921415 1.8633152 1.4383586e-38
-3.7337215 17.922125 1.8628854 1.4475782e-38
-3.7273145 17.833075 1.8564125 1.4475784e-38
-3.716799 17.833775 1.8559897 1.456798e-38
-3.7062833 17.834473 1.8555669 1.4660176e-38
-3.6909797 17.924965 1.8611668 1.4752371e-38
-3.6852522 17.835871 1.8547211 1.4752371e-38
-3.6747367 17.836569 1.8542984 1.484421e-38
-3.6642213 17.837267 1.8538754 1.484421e-38
-3.6537056 17.837967 1.8534526 1.4936408e-38
-3.6375525 17.928513 1.8590181 1.5028604e-38
-3.6268671 17.929224 1.8585885 1.5120799e-38
-3.6161816 17.929934 1.8581588 1.5120799e-38
-3.6054962 17.930643 1.8577291 1.5120799e-38
-3.5882862 18.024199 1.8634564 1.5120799e-38
-3.5774252 18.02492 1.8630197 1.5120799e-38
-3.5665643 18.025642 1.8625829 1.5212995e-38
-3.5627544 17.933483 1.8560104 1.5305191e-38
-3.5520692 17.934193 1.8555806 1.5489582e-38
-3.5339818 18.027805 1.8612726 1.5489582e-38
-3.5231209 18.028528 1.8608359 1.5397386e-38
-3.51226 18.029249 1.8603991 1.5305191e-38
-3.5093274 17.937031 1.8538618 1.5397386e-38
-3.498642 17.93774 1.8534322 1.5397383e-38
-3.4879565 17.938452 1.8530024 1.567397e-38
-3.4772711 17.939161 1.8525728 1.567397e-38
-3.4665856 17.939871 1.852143 1.5766166e-38
-3.4559002 17.94058 1.8517133 1.5858362e-38
-3.4539104 17.851238 1.8454183 1.5950557e-38
-3.4433949 17.851938 1.8449951 1.5950557e-38
-3.4328792 17.852636 1.8445723 1.5950557e-38
-3.4223638 17.853334 1.8441496 1.5858362e-38
-3.4118483 17.854033 1.8437268 1.5858362e-38
-3.4013326 17.854733 1.8433038 1.5858362e-38
-3.3908172 17.855431 1.842881 1.5950557e-38
-3.3803017 17.856129 1.842458 1.5950557e-38
-3.3697863 17.856829 1.8420352 1.6042753e-38
-3.3592706 17.857527 1.8416123 1.6042753e-38
-3.3487551 17.858225 1.8411895 1.6134948e-38
-3.3382394 17.858923 1.8407667 1.6135306e-38
-3.327724 17.859621 1.8403437 1.622678e-38
-3.3172083 17.860321 1.8399209 1.622678e-38
-3.3066928 17.861019 1.839498 1.6318975e-38
-3.2961771 17.861717 1.8390752 1.6318975e-38
-3.2856617 17.862417 1.8386524 1.6411171e-38
-3.2863674 17.775696 1.8326601 1.6411171e-38
-3.2760162 17.776384 1.8322436 1.6503369e-38
-3.2656655 17.777071 1.8318276 1.6503369e-38
-3.2553144 17.77776 1.8314111 1.6503371e-38
-3.2449634 17.778446 1.8309951 1.6503371e-38
-3.2346125 17.779135 1.8305787 1.6595567e-38
-3.2242615 17.779821 1.8301624 1.6595567e-38
-3.2139106 17.78051 1.8297462 1.6503371e-38
-3.2035596 17.781197 1.82933 1.6503371e-38
-3.1932087 17.781885 1.8289138 1.6410819e-38
-3.1828575 17.782572 1.8284975 1.6411174e-38
-3.1725066 17.78326 1.8280811 1.650372e-38
-3.1621556 17.783947 1.827665 1.6504074e-38
-3.1518044 17.784636 1.8272487 1.6411523e-38
-3.1414537 17.785322 1.8268325 1.6411523e-38
-3.1311026 17.786011 1.8264163 1.6411524e-38
-3.1207519 17.786697 1.826 1.6411524e-38
-3.1104007 17.787386 1.8255838 1.6411527e-38
-3.1000497 17.788074 1.8251675 1.6411527e-38
-3.089699 17.788761 1.8247513 1.6503723e-38
-3.0793478 17.78945 1.8243351 1.6227136e-38
-3.0689969 17.790136 1.8239188 1.650372e-38
-3.058646 17.790825 1.8235024 1.650372e-38
-3.048295 17.791512 1.8230864 1.6226771e-38
-3.0526474 17.70722 1.8174261 1.641116e-38
-3.0573568 17.62269 1.8117654 1.6318964e-38
-3.0473254 17.623356 1.8113621 1.5488478e-38
-3.0372934 17.624023 1.8109586 1.2721165e-38
-3.027262 17.624689 1.8105552 1.1522256e-38
-3.0172305 17.625357 1.8101518 1.1614808e-38
-3.0219147 17.546108 1.804857 1.1799195e-38
-3.012033 17.546764 1.8044597 1.2812984e-38
-2.9871359 17.627354 1.8089416 1.3550549e-38
-2.9771044 17.628021 1.8085383 1.2813347e-38
-2.9670727 17.628687 1.8081348 1.3182132e-38
-2.9570413 17.629354 1.8077315 1.2812995e-38
-2.9470096 17.63002 1.807328 1.2720802e-38
-5.4331608 17.809641 1.9205062 9.6938927e-39
-5.4224753 17.81035 1.9200765 9.6013411e-39
-5.4117899 17.81106 1.9196466 9.9697635e-39
-5.4011045 17.811771 1.9192172 1.0521858e-38
-5.3904195 17.812481 1.9187875 1.0889922e-38
-5.3797336 17.81319 1.9183577 1.1257617e-38
-5.3690481 17.8139 1.9179281 9.6877592e-39
-5.3583627 17.81461 1.9174985 9.7781486e-39
-5.3476772 17.815321 1.9170686 9.5915937e-39
-5.3369918 17.816031 1.9166389 8.9451369e-39
-5.3263063 17.81674 1.9162092 7.9288242e-39
-5.3373542 17.908424 1.9228966 7.0976188e-39
-5.3049355 17.818159 1.9153497 7.1894543e-39
-5.29425 17.818869 1.9149202 7.7433455e-39
-5.3047719 17.910589 1.9215866 7.2823674e-39
-5.2728796 17.82029 1.914061 6.454043e-39
-5.2830501 17.912033 1.9207129 8.8518483e-39
-5.2721891 17.912754 1.9202763 1.0880152e-38
-5.2613282 17.913475 1.9198394 1.1433329e-38
-5.2504673 17.914196 1.919403 1.1525167e-38
-5.2396064 17.914919 1.9189662 1.1064192e-38
-5.2287455 17.91564 1.9185294 1.1708845e-38
-5.2178845 17.916363 1.9180926 1.1524454e-38
-5.2070236 17.917084 1.9176558 1.1616286e-38
-5.1961627 17.917805 1.917219 1.1708482e-38
-5.1853018 17.918526 1.9167823 1.1708482e-38
-5.1744409 17.919249 1.9163457 1.1708482e-38
-5.1635799 17.91997 1.9159089 1.1708482e-38
-5.152719 17.920691 1.9154721 1.1616286e-38
-5.1418581 17.921412 1.9150354 1.1616286e-38
-5.1309972 17.922134 1.9145986 1.1616286e-38
-5.1201363 17.922855 1.914162 1.1616286e-38
-5.1092753 17.923576 1.913725 1.1616286e-38
-5.0984144 17.924299 1.9132885 1.1616286e-38
-5.0875535 17.92502 1.9128518 1.1616286e-38
-5.0954351 18.023352 1.9198465 1.1616286e-38
-5.0843863 18.024086 1.9194024 1.1616286e-38
-5.073338 18.02482 1.9189583 1.1616286e-38
-5.0622892 18.025555 1.9185138 1.1616652e-38
-5.0512409 18.026289 1.9180695 1.1524457e-38
-5.0401921 18.027021 1.9176252 1.1431905e-38
-5.0291433 18.027756 1.9171808 1.1340065e-38
-5.018095 18.02849 1.9167365 1.1340065e-38
-5.0070462 18.029224 1.9162922 1.1432258e-38
-4.9959979 18.029959 1.9158479 1.1432258e-38
-4.9849491 18.030693 1.9154035 1.1432258e-38
-4.9739008 18.031425 1.9149593 1.1432255e-38
-4.962852 18.032162 1.9145151 1.1432255e-38
-4.9518032 18.032894 1.9140707 1.1432611e-38
-4.9407549 18.033628 1.9136266 1.1432611e-38
-4.9297061 18.034363 1.9131821 1.1432611e-38
-4.9186578 18.035097 1.9127377 1.143261e-38
-4.907609 18.03583 1.9122936 1.143261e-38
-4.8965607 18.036564 1.9118493 1.143261e-38
-4.8855119 18.037298 1.911405 1.124822e-38
-4.8744636 18.038033 1.9109607 1.1247864e-38
-4.8634148 18.038767 1.9105164 1.134006e-38
-4.8523664 18.039501 1.910072 1.134006e-38
-4.8413177 18.040234 1.9096276 1.1432255e-38
-4.8160315 17.943058 1.9019328 1.1432611e-38
-4.8051705 17.943779 1.9014961 1.1524807e-38
-4.8081717 18.042437 1.9082948 1.1524807e-38
-4.7971234 18.043171 1.9078507 1.1617002e-38
-4.7725878 17.945946 1.9001858 1.1617002e-38
-4.7750258 18.044638 1.9069618 1.1617001e-38
-4.7639775 18.045372 1.9065177 1.1617001e-38
-4.7529287 18.046106 1.9060732 1.1524805e-38
-4.7418804 18.046841 1.905629 1.1524805e-38
-4.7308316 18.047573 1.9051846 1.143261e-38
-4.7197828 18.048307 1.9047406 1.1340414e-38
-4.7087345 18.049042 1.9042962 1.143261e-38
-4.6976862 18.049776 1.9038517 1.1524805e-38
-4.6866374 18.05051 1.9034076 1.1524805e-38
-4.6755891 18.051245 1.9029632 1.1617001e-38
-4.6531177 17.95388 1.8953813 1.1617001e-38
-4.6422567 17.954603 1.8949445 1.1524805e-38
-4.6313958 17.955324 1.894508 1.1524805e-38
-4.6205349 17.956045 1.894071 1.143261e-38
-4.609674 17.956768 1.8936346 1.1709197e-38
-4.5988131 17.957489 1.8931978 1.1709197e-38
-4.5879521 17.95821 1.8927609 1.1709197e-38
-4.5770912 17.958931 1.8923241 1.1709197e-38
-4.5662303 17.959654 1.8918873 1.1709197e-38
-4.5553699 17.960375 1.8914508 1.1617001e-38
-4.5445089 17.961096 1.8910137 1.1617002e-38
-4.533648 17.961819 1.8905772 1.1617002e-38
-4.5227871 17.96254 1.8901404 1.1709198e-38
-4.5119262 17.963261 1.8897036 1.1709198e-38
-4.5010653 17.963984 1.8892668 1.1708842e-38
-4.4902043 17.964705 1.8888301 1.1617002e-38
-4.4877629 18.063723 1.8954102 1.1617002e-38
-4.4767141 18.064457 1.894966 1.1524807e-38
-4.4656658 18.065191 1.8945215 1.1524807e-38
-4.454617 18.065924 1.8940772 1.1524807e-38
-4.4435682 18.066658 1.8936329 1.1524805e-38
-4.4325199 18.067392 1.8931886 1.143261e-38
-4.4141779 17.969755 1.8857729 1.1248216e-38
-4.403317 17.970476 1.8853364 1.115602e-38
-4.3924561 17.971197 1.8848996 1.1063825e-38
-4.3815951 17.97192 1.8844628 1.0971629e-38
-4.3707342 17.972641 1.8840259 1.0695042e-38
-4.3598733 17.973362 1.8835891 1.0510651e-38
-4.3490124 17.974085 1.8831525 1.0509935e-38
-4.3381515 17.974806 1.8827155 1.0325543e-38
-4.3272905 17.975527 1.8822789 1.0324823e-38
-4.3164296 17.976248 1.8818421 1.0141152e-38
-4.3055692 17.976971 1.8814054 1.0509214e-38
-4.2947083 17.977692 1.8809687 1.0417739e-38
-4.2838473 17.978413 1.8805319 1.0509935e-38
-4.2729864 17.979134 1.8800954 1.0509935e-38
-4.2621255 17.979856 1.8796583 1.1524087e-38
-4.2512646 17.980577 1.8792218 1.1801029e-38
-4.2404037 17.981298 1.878785 1.2077979e-38
-4.2295427 17.982021 1.8783482 1.2354563e-38
-4.2186818 17.982742 1.8779112 1.2354566e-38
-4.2078209 17.983463 1.8774744 1.2354563e-38
-4.19696 17.984186 1.8770379 1.2354563e-38
-4.1860991 17.984907 1.8766011 1.2354563e-38
-4.1752381 17.985628 1.8761643 1.2263087e-38
-4.1643772 17.986349 1.8757275 1.2263087e-38
-4.1535163 17.987072 1.8752908 1.2355282e-38
-4.1426554 17.987793 1.8748541 1.2447478e-38
-4.1317945 17.988514 1.8744174 1.2447478e-38
-4.1209335 17.989237 1.8739806 1.2539673e-38
-4.1100726 17.989958 1.8735439 1.2631869e-38
-4.0992117 17.990679 1.8731072 1.2631869e-38
-4.0883508 17.9914 1.8726704 1.2539673e-38
-4.0774899 17.992123 1.8722336 1.2631869e-38
-4.0666294 17.992844 1.8717968 1.2724065e-38
-4.055768 17.993565 1.8713601 1.281626e-38
-4.0449076 17.994286 1.8709235 1.2908456e-38
-4.0340466 17.995008 1.8704865 1.2908456e-38
-4.0231857 17.995729 1.8700497 1.2908456e-38
-4.0123248 17.996452 1.8696129 1.2908459e-38
-4.0014639 17.997173 1.8691761 1.2816988e-38
-3.9906278 17.905474 1.8624972 1.2908827e-38
-3.9797421 17.998615 1.8683027 1.3001379e-38
-3.9692569 17.906893 1.8616377 1.3093575e-38
-3.9585714 17.907604 1.8612082 1.3185767e-38
-3.947886 17.908314 1.8607785 1.3277963e-38
-3.9372005 17.909023 1.8603488 1.3461633e-38
-3.9265151 17.909733 1.8599191 1.3553828e-38
-3.9158297 17.910442 1.8594893 1.3553107e-38
-3.9051442 17.911154 1.8590597 1.3737498e-38
-3.894459 17.911863 1.8586299 1.3922245e-38
-3.8819938 18.00511 1.8643721 1.4014441e-38
-3.8730879 17.913282 1.8577706 1.4106636e-38
-3.8602722 18.006552 1.8634986 1.4106636e-38
-3.851717 17.914701 1.8569112 1.4290309e-38
-3.8410316 17.915411 1.8564814 1.4291027e-38
-3.8303461 17.916121 1.8560518 1.3922961e-38
-3.8196609 17.916832 1.8556221 1.4015157e-38
-3.8089752 17.917542 1.8551924 1.4015157e-38
-3.79829 17.918251 1.8547626 1.4107352e-38
-3.7908566 17.829266 1.848419 1.4199192e-38
-3.7803409 17.829962 1.847996 1.4291388e-38
-3.7698255 17.830662 1.8475733 1.429139e-38
-3.7593098 17.83136 1.8471504 1.4383586e-38
-3.7448628 17.921801 1.8526142 1.4475784e-38
-3.7341774 17.92251 1.8521845 1.4475784e-38
-3.7277632 17.833456 1.8458819 1.4567623e-38
-3.7172477 17.834154 1.8454589 1.4567623e-38
-3.7067323 17.834852 1.845036 1.4659818e-38
-3.6914356 17.92535 1.8504658 1.4752371e-38
-3.6857011 17.83625 1.8441905 1.4752371e-38
-3.6751854 17.836948 1.8437675 1.484421e-38
-3.66467 17.837646 1.8433446 1.484421e-38
-3.6541545 17.838346 1.8429219 1.4936405e-38
-3.6380086 17.9289 1.8483173 1.5028604e-38
-3.6213324 18.022427 1.8538901 1.5120797e-38
-3.6166377 17.930319 1.8474579 1.5120799e-38
-3.605952 17.931028 1.8470281 1.5120797e-38
-3.5887496 18.02459 1.8525797 1.5120799e-38
-3.5778887 18.025312 1.852143 1.5120797e-38
-3.5670278 18.026033 1.8517063 1.5212995e-38
-3.5632105 17.933868 1.8453094 1.5397383e-38
-3.552525 17.934578 1.8448799 1.5489582e-38
-3.5418396 17.935287 1.84445 1.5489579e-38
-3.5311542 17.935999 1.8440202 1.5397386e-38
-3.5204687 17.936708 1.8435906 1.5305188e-38
-3.5097833 17.937418 1.8431609 1.5397386e-38
-3.4990978 17.938128 1.8427311 1.5397383e-38
-3.4884126 17.938837 1.8423015 1.5766166e-38
-3.4777272 17.939548 1.841872 1.5766166e-38
-3.4670415 17.940256 1.8414422 1.5858362e-38
-3.4563563 17.940968 1.8410124 1.5950557e-38
-3.4543593 17.85162 1.8348873 1.6042753e-38
-3.4438436 17.852318 1.8344644 1.6042753e-38
-3.4333279 17.853016 1.8340416 1.6042753e-38
-3.4228125 17.853716 1.8336188 1.5950557e-38
-3.412297 17.854414 1.8331958 1.5858362e-38
-3.4017816 17.855112 1.8327731 1.5950557e-38
-3.3912659 17.85581 1.8323501 1.5950557e-38
-3.3807504 17.856508 1.8319273 1.6042753e-38
-3.3702347 17.857208 1.8315045 1.6042753e-38
-3.3597195 17.857906 1.8310815 1.6134948e-38
-3.3492038 17.858604 1.8306587 1.6134948e-38
-3.3386881 17.859304 1.8302357 1.6135306e-38
-3.3281727 17.860003 1.829813 1.6226783e-38
-3.3176572 17.860701 1.8293902 1.6318975e-38
-3.3071418 17.861399 1.8289673 1.6318975e-38
-3.2966261 17.862097 1.8285444 1.6411171e-38
-3.2971601 17.775383 1.8227103 1.6411171e-38
-3.2755949 17.863495 1.8276986 1.6503367e-38
-3.2764578 17.776758 1.8218778 1.6503369e-38
-3.2661073 17.777445 1.8214614 1.6503369e-38
-3.2557561 17.778133 1.8210452 1.6503371e-38
-3.245405 17.77882 1.820629 1.6595567e-38
-3.2350543 17.779509 1.8202127 1.6595567e-38
-3.2247031 17.780195 1.8197964 1.6595567e-38
-3.2143521 17.780884 1.8193803 1.6595567e-38
-3.2040012 17.78157 1.818964 1.6503371e-38
-3.1936502 17.782259 1.8185478 1.6411175e-38
-3.1832993 17.782948 1.8181316 1.6411174e-38
-3.1729484 17.783634 1.8177153 1.6595915e-38
-3.1625974 17.784323 1.8172991 1.6503718e-38
-3.1522462 17.785009 1.8168827 1.6503718e-38
-3.1418953 17.785696 1.8164665 1.650372e-38
-3.1315444 17.786385 1.8160503 1.6411524e-38
-3.1211934 17.787073 1.815634 1.6411527e-38
-3.1108425 17.78776 1.8152177 1.6411527e-38
-3.1004915 17.788448 1.8148016 1.6319331e-38
-3.0901406 17.789135 1.8143852 1.6503723e-38
-3.0797894 17.789824 1.8139691 1.6227136e-38
-3.0836568 17.705557 1.8084494 1.6411524e-38
-3.0734653 17.706234 1.8080397 1.6595197e-38
-3.0632737 17.706911 1.8076297 1.6226771e-38
-3.0530822 17.707588 1.8072199 1.641116e-38
-3.057785 17.623053 1.8017193 1.6502632e-38
-3.0477533 17.623718 1.8013159 1.5488478e-38
-3.0377219 17.624386 1.8009126 1.3182144e-38
-3.0276902 17.625051 1.8005091 1.1706651e-38
-3.0176587 17.625719 1.8001058 1.1707004e-38
-3.007627 17.626385 1.7997024 1.1891394e-38
-3.0124547 17.547121 1.7945635 1.2997378e-38
-2.9875641 17.627718 1.7988955 1.3827136e-38
-2.9775324 17.628384 1.7984921 1.2997738e-38
-2.9675007 17.629049 1.7980888 1.3274328e-38
-2.9574692 17.629717 1.7976851 1.3089938e-38
-2.947438 17.630383 1.797282 1.2536408e-38
-5.4572878 17.900881 1.9168245 1.2459762e-38
-5.4464269 17.901602 1.9163879 1.1169021e-38
-5.4355659 17.902325 1.9159509 1.2551237e-38
-5.4015608 17.812157 1.9085162 1.218281e-38
-5.3908753 17.812866 1.9080865 1.2827098e-38
-5.3801894 17.813576 1.9076567 1.2179924e-38
-5.3695045 17.814287 1.907227 9.6877564e-39
-5.3588185 17.814997 1.9067974 9.4086444e-39
-5.3481336 17.815706 1.9063679 9.4075542e-39
-5.3374476 17.816416 1.9059381 8.8529357e-39
-5.3055429 17.729048 1.8987806 7.8373418e-39
-5.3160772 17.817837 1.9050786 7.6518743e-39
-5.3053918 17.818546 1.904649 7.7437168e-39
-5.2947063 17.819256 1.9042192 7.1912619e-39
-5.3052349 17.910982 1.9107099 6.7302838e-39
-5.2733355 17.820675 1.9033599 7.0075839e-39
-5.2835131 17.912426 1.9098363 8.944767e-39
-5.2726521 17.913147 1.9093996 1.106562e-38
-5.2617917 17.913868 1.908963 1.1434402e-38
-5.2509308 17.914589 1.9085262 1.1433326e-38
-5.2400694 17.91531 1.9080893 1.1709561e-38
-5.2292089 17.916033 1.9076526 1.1708845e-38
-5.218348 17.916754 1.9072161 1.1616649e-38
-5.2074871 17.917477 1.9067793 1.1616649e-38
-5.1966262 17.918198 1.9063425 1.1616649e-38
-5.1857653 17.918919 1.9059057 1.1616649e-38
-5.1749043 17.91964 1.9054689 1.1616649e-38
-5.1640434 17.920362 1.9050324 1.1616649e-38
-5.1531825 17.921083 1.9045953 1.1616647e-38
-5.1423216 17.921804 1.9041587 1.1616647e-38
-5.1314607 17.922525 1.9037219 1.1524451e-38
-5.1205997 17.923248 1.9032851 1.1524451e-38
-5.1097388 17.923969 1.9028484 1.1524807e-38
-5.0988779 17.92469 1.9024116 1.1524807e-38
-5.0880175 17.925413 1.9019752 1.1524807e-38
-5.0959067 18.023752 1.908782 1.1432611e-38
-5.0848579 18.024487 1.9083376 1.1432611e-38
-5.0738091 18.025219 1.9078933 1.1432255e-38
-5.0627608 18.025953 1.9074491 1.1432258e-38
-5.0697131 18.124363 1.9142189 1.1432258e-38
-5.0406637 18.027422 1.9065605 1.1524457e-38
-5.0296149 18.028156 1.9061164 1.1616649e-38
-5.0185666 18.028889 1.9056718 1.1616649e-38
-5.0075178 18.029623 1.9052278 1.1524454e-38
-4.996469 18.030357 1.9047834 1.1432258e-38
-4.9854207 18.031092 1.9043392 1.1432255e-38
-4.9576864 17.934071 1.8967338 1.1432255e-38
-4.9468255 17.934793 1.8962971 1.1432255e-38
-4.9359646 17.935514 1.8958606 1.1524451e-38
-4.9251037 17.936235 1.8954237 1.1524807e-38
-4.9301777 18.034761 1.9021174 1.1524807e-38
-4.9191294 18.035496 1.9016732 1.1524807e-38
-4.9080806 18.03623 1.9012288 1.1617002e-38
-4.8970323 18.036964 1.9007844 1.1617002e-38
-4.8859835 18.037697 1.9003404 1.1340416e-38
-4.8749347 18.038431 1.899896 1.1340416e-38
-4.8638864 18.039165 1.8994516 1.1340416e-38
-4.8528376 18.0399 1.8990074 1.1340416e-38
-4.8417892 18.040634 1.8985634 1.1340416e-38
-4.8164945 17.943451 1.8910561 1.1340416e-38
-4.805634 17.944174 1.8906195 1.1340416e-38
-4.7947731 17.944895 1.8901825 1.1340414e-38
-4.7975945 18.04357 1.8967859 1.143261e-38
-4.7730513 17.946337 1.889309 1.1524805e-38
-4.7621903 17.947058 1.8888723 1.1524805e-38
-4.7513294 17.947781 1.8884356 1.1617001e-38
-4.7534003 18.046505 1.8950086 1.1616998e-38
-4.742352 18.047239 1.8945645 1.1524803e-38
-4.7313032 18.047974 1.8941202 1.1524803e-38
-4.7202544 18.048708 1.8936758 1.1432607e-38
-4.7092061 18.04944 1.8932316 1.1340411e-38
-4.6981573 18.050177 1.8927872 1.1340411e-38
-4.687109 18.050909 1.8923428 1.1432607e-38
-4.6760602 18.051643 1.8918986 1.1524803e-38
-4.6535811 17.954273 1.8845048 1.1616998e-38
-4.6427202 17.954994 1.884068 1.1616998e-38
-4.6318593 17.955717 1.8836312 1.1617001e-38
-4.6209984 17.956438 1.8831946 1.1617001e-38
-4.6101375 17.957159 1.8827578 1.1709198e-38
-4.5992765 17.957882 1.8823212 1.1709198e-38
-4.5987201 18.056782 1.8887885 1.1709198e-38
-4.5876718 18.057514 1.8883443 1.1801394e-38
-4.5666938 17.960047 1.8810108 1.1801394e-38
-4.5558329 17.960768 1.880574 1.1801394e-38
-4.5449724 17.961489 1.8801372 1.1801038e-38
-4.5341115 17.962212 1.8797004 1.1801394e-38
-4.5232506 17.962933 1.8792639 1.1801394e-38
-4.5123897 17.963654 1.8788269 1.1801392e-38
-4.5015287 17.964375 1.8783903 1.1801394e-38
-4.4906678 17.965096 1.8779535 1.1893588e-38
-4.4882345 18.064121 1.8843457 1.1801392e-38
-4.4771857 18.064856 1.8839012 1.1801392e-38
-4.4661369 18.06559 1.8834568 1.1709197e-38
-4.4550886 18.066324 1.8830127 1.1709197e-38
-4.4440398 18.067057 1.8825682 1.1524805e-38
-4.4329915 18.067791 1.8821241 1.1524805e-38
-4.4146414 17.970148 1.8748963 1.143261e-38
-4.4037805 17.970869 1.8744594 1.1248219e-38
-4.3929195 17.97159 1.8740226 1.1156023e-38
-4.3820586 17.972311 1.8735859 1.0971632e-38
-4.3711977 17.973034 1.8731492 1.0879436e-38
-4.3603368 17.973755 1.8727125 1.0879436e-38
-4.3494759 17.974476 1.8722757 1.0510654e-38
-4.3386149 17.975199 1.8718389 1.0418458e-38
-4.327754 17.97592 1.8714021 1.0510291e-38
-4.3168931 17.976641 1.8709655 1.0510651e-38
-4.3060322 17.977364 1.8705287 1.0879073e-38
-4.2951717 17.978085 1.870092 1.1248216e-38
-4.2843108 17.978806 1.8696554 1.1709194e-38
-4.2734499 17.979527 1.8692185 1.1985781e-38
-4.262589 17.980247 1.8687817 1.2354563e-38
-4.2517281 17.98097 1.868345 1.2354919e-38
-4.2408671 17.981691 1.8679084 1.2354563e-38
-4.2300062 17.982414 1.8674713 1.2354919e-38
-4.2191453 17.983135 1.8670347 1.2446759e-38
-4.2082844 17.983856 1.866598 1.2447115e-38
-4.1974235 17.984577 1.8661611 1.2447115e-38
-4.1865625 17.9853 1.8657243 1.2447115e-38
-4.1757016 17.986021 1.8652877 1.2724065e-38
-4.1648407 17.986742 1.8648509 1.2724065e-38
-4.1539798 17.987463 1.8644142 1.2631869e-38
-4.1431189 17.988186 1.8639774 1.2631869e-38
-4.1322579 17.988907 1.8635406 1.2631869e-38
-4.121397 17.989628 1.8631039 1.2631869e-38
-4.1105361 17.990351 1.8626673 1.2631869e-38
-4.0996752 17.991072 1.8622304 1.2631869e-38
-4.0888143 17.991793 1.8617938 1.2724065e-38
-4.0779533 17.992516 1.8613571 1.281626e-38
-4.0658817 17.90089 1.8548042 1.281626e-38
-4.056232 17.993958 1.8604834 1.2908456e-38
-4.0453711 17.994678 1.8600466 1.2908456e-38
-4.0345101 17.995401 1.8596098 1.3000652e-38
-4.0236487 17.996122 1.8591731 1.3000652e-38
-4.0127883 17.996843 1.8587364 1.3000652e-38
-4.0019274 17.997566 1.8582996 1.3185046e-38
-3.9910836 17.905859 1.8517963 1.3185046e-38
-3.9802055 17.999008 1.857426 1.3185046e-38
-3.9697127 17.90728 1.8509369 1.3277241e-38
-3.9590273 17.90799 1.8505071 1.3369437e-38
-3.9483418 17.908699 1.8500776 1.3553828e-38
-3.9376566 17.909409 1.8496478 1.3646021e-38
-3.9269712 17.91012 1.8492182 1.3738217e-38
-3.9162858 17.91083 1.8487884 1.3830412e-38
-3.9056001 17.911539 1.8483586 1.3830412e-38
-3.8933182 18.00478 1.8539323 1.3830412e-38
-3.8824573 18.005503 1.8534955 1.3830412e-38
-3.8715963 18.006224 1.8530587 1.3922608e-38
-3.8607357 18.006945 1.8526219 1.4014804e-38
-3.8498747 18.007668 1.852185 1.4290672e-38
-3.8390138 18.008389 1.8517482 1.4199192e-38
-3.8308022 17.916508 1.8453507 1.4107351e-38
-3.8201168 17.917217 1.8449212 1.4107351e-38
-3.8123362 17.828247 1.838734 1.4199548e-38
-3.8018208 17.828945 1.8383111 1.4291744e-38
-3.7913053 17.829645 1.8378881 1.4383583e-38
-3.7807896 17.830343 1.8374653 1.4383586e-38
-3.7702739 17.831041 1.8370425 1.4475784e-38
-3.7597587 17.831739 1.8366196 1.4475427e-38
-3.749243 17.832439 1.8361968 1.4659821e-38
-3.7387273 17.833138 1.8357738 1.4659821e-38
-3.7282119 17.833836 1.835351 1.4752017e-38
-3.7176964 17.834534 1.8349283 1.4752017e-38
-3.707181 17.835234 1.8345053 1.4844212e-38
-3.6918917 17.925735 1.8397648 1.484421e-38
-3.6812062 17.926445 1.8393351 1.4936405e-38
-3.6705208 17.927156 1.8389055 1.4936405e-38
-3.6598353 17.927866 1.8384757 1.5120436e-38
-3.6546032 17.838726 1.832391 1.5120435e-38
-3.6384645 17.929285 1.8376163 1.5212632e-38
-3.6217959 18.022818 1.8430132 1.5212631e-38
-3.6170936 17.930706 1.8367569 1.5212632e-38
-3.6064081 17.931416 1.8363272 1.5304826e-38
-3.5892131 18.024984 1.8417032 1.5304828e-38
-3.5783522 18.025705 1.8412664 1.5304826e-38
-3.5743518 17.933544 1.8350381 1.5489219e-38
-3.5636663 17.934254 1.8346084 1.5489218e-38
-3.5529811 17.934965 1.8341787 1.5581415e-38
-3.5422955 17.935675 1.8337491 1.5673609e-38
-3.5316103 17.936384 1.8333194 1.567361e-38
-3.5209248 17.937094 1.8328896 1.5765804e-38
-3.5102391 17.937803 1.83246 1.5765806e-38
-3.4995539 17.938515 1.8320302 1.5765804e-38
-3.4888685 17.939224 1.8316007 1.5858e-38
-3.478183 17.939934 1.8311709 1.5858e-38
-3.4674976 17.940643 1.8307412 1.5950196e-38
-3.4568121 17.941353 1.8303115 1.5950196e-38
-3.454808 17.851999 1.8243567 1.6042391e-38
-3.4442923 17.852697 1.8239337 1.6042391e-38
-3.4337769 17.853395 1.8235108 1.6134587e-38
-3.4232612 17.854095 1.8230878 1.6134587e-38
-3.4127457 17.854794 1.8226651 1.6318978e-38
-3.40223 17.855492 1.8222423 1.6318978e-38
-3.3917146 17.85619 1.8218194 1.6318978e-38
-3.3811991 17.85689 1.8213965 1.6226783e-38
-3.3706834 17.857588 1.8209736 1.6226783e-38
-3.360168 17.858286 1.8205508 1.6226783e-38
-3.3496525 17.858984 1.8201278 1.6226783e-38
-3.3391368 17.859684 1.819705 1.6226783e-38
-3.3286214 17.860382 1.8192822 1.6411174e-38
-3.3181057 17.86108 1.8188592 1.6411174e-38
-3.3075905 17.861778 1.8184364 1.6503369e-38
-3.2970748 17.862478 1.8180137 1.6595565e-38
-3.2865591 17.863176 1.8175908 1.6595565e-38
-3.2760437 17.863874 1.8171679 1.6595565e-38
-3.2655282 17.864574 1.816745 1.6595565e-38
-3.2665489 17.777821 1.8110955 1.6595565e-38
-3.2561979 17.778507 1.8106791 1.6503369e-38
-3.245847 17.779196 1.810263 1.6503369e-38
-3.2354958 17.779882 1.8098466 1.6595565e-38
-3.2251451 17.780569 1.8094305 1.6687761e-38
-3.2147939 17.781258 1.8090142 1.6687761e-38
-3.204443 17.781944 1.808598 1.6687761e-38
-3.194092 17.782633 1.8081818 1.6595565e-38
-3.1837411 17.783321 1.8077656 1.6595562e-38
-3.1733902 17.784008 1.8073492 1.6872505e-38
-3.163039 17.784697 1.806933 1.6872502e-38
-3.152688 17.785383 1.8065168 1.6780307e-38
-3.1423371 17.786072 1.8061004 1.6688114e-38
-3.1319861 17.786758 1.8056843 1.6688114e-38
-3.1216352 17.787447 1.8052679 1.6595562e-38
-3.1112845 17.788134 1.8048519 1.6595202e-38
-3.1146662 17.703894 1.7994727 1.6595202e-38
-3.1044745 17.704571 1.7990628 1.6503007e-38
-3.0942829 17.70525 1.7986529 1.6687395e-38
-3.0840917 17.705925 1.7982433 1.6687392e-38
-3.0739 17.706602 1.7978333 1.6778868e-38
-3.0491784 17.792259 1.8023543 1.6963257e-38
-3.0535171 17.707956 1.7970136 1.6963255e-38
-3.0582128 17.623415 1.7916732 1.6594109e-38
-3.0481813 17.624081 1.7912697 1.5948737e-38
-3.0381498 17.624748 1.7908665 1.3274342e-38
-3.0281181 17.625414 1.7904631 1.1153477e-38
-3.0180867 17.62608 1.7900598 1.1891042e-38
-3.008055 17.626747 1.7896564 1.2352017e-38
-3.0128763 17.54748 1.7846676 1.2259459e-38
-2.987992 17.62808 1.7888495 1.3181413e-38
-2.9779603 17.628746 1.7884461 1.3274325e-38
-2.9679289 17.629414 1.7880427 1.3366521e-38
-2.9578972 17.630079 1.7876394 1.318213e-38
-2.9478657 17.630745 1.787236 1.2075782e-38
-5.4577513 17.901274 1.905948 1.2459406e-38
-5.4468904 17.901995 1.9055109 1.1905869e-38
-5.4360294 17.902716 1.9050741 1.2643433e-38
-5.4020166 17.812544 1.8978151 1.3011492e-38
-5.3913312 17.813253 1.8973856 1.3196236e-38
-5.3806458 17.813963 1.8969558 1.2917487e-38
-5.3699603 17.814672 1.8965262 1.0978132e-38
-5.3592744 17.815382 1.8960967 1.005437e-38
-5.3485894 17.816092 1.895667 9.5923014e-39
-5.337904 17.816801 1.895237 9.1298785e-39
-5.3059916 17.729427 1.88825 8.0217331e-39
-5.3165331 17.818222 1.8943776 7.3756476e-39
-5.3058476 17.818932 1.893948 7.283103e-39
-5.2951622 17.819641 1.8935183 7.0065189e-39
-5.3056984 17.911375 1.8998332 6.7302922e-39
-5.2737913 17.821062 1.8926591 6.8239185e-39
-5.2839766 17.912817 1.8989599 8.7610946e-39
-5.2731156 17.91354 1.8985229 1.0881947e-38
-5.2622552 17.914261 1.8980863 1.1250011e-38
-5.2513943 17.914982 1.8976496 1.1157818e-38
-5.2405334 17.915703 1.8972127 1.1708845e-38
-5.2296724 17.916426 1.896776 1.1708848e-38
-5.2188115 17.917147 1.8963393 1.1708845e-38
-5.2079506 17.91787 1.8959028 1.1708845e-38
-5.1970897 17.918591 1.8954657 1.1708845e-38
-5.1862288 17.919312 1.8950292 1.1708845e-38
-5.1753678 17.920033 1.8945924 1.1708845e-38
-5.1645069 17.920753 1.8941556 1.1708845e-38
-5.153646 17.921476 1.8937188 1.1708842e-38
-5.1427851 17.922197 1.8932821 1.1708842e-38
-5.1319242 17.92292 1.8928454 1.1616647e-38
-5.1210632 17.923641 1.8924087 1.1616647e-38
-5.1295238 18.021948 1.89905 1.1524807e-38
-5.0993414 17.925083 1.8915352 1.1524807e-38
-5.1074266 18.023417 1.898162 1.1524807e-38
-5.0963783 18.024151 1.8977175 1.1524807e-38
-5.0853295 18.024885 1.8972732 1.1432611e-38
-5.0742807 18.02562 1.896829 1.1432611e-38
-5.0632324 18.026352 1.8963846 1.1432258e-38
-5.0521836 18.027086 1.8959402 1.1524454e-38
-5.0411353 18.027821 1.895496 1.1524454e-38
-5.0300865 18.028555 1.8950516 1.1616649e-38
-5.0190382 18.029289 1.8946071 1.1616649e-38
-5.0079894 18.030024 1.894163 1.1524454e-38
-4.9969406 18.030756 1.8937186 1.1524451e-38
-4.9690108 17.933743 1.8862939 1.1432255e-38
-4.9581499 17.934464 1.8858571 1.1432255e-38
-4.947289 17.935184 1.8854204 1.1432255e-38
-4.9364281 17.935907 1.8849835 1.1524451e-38
-4.9255672 17.936628 1.884547 1.1524451e-38
-4.9147062 17.937349 1.88411 1.1524807e-38
-4.9196005 18.035894 1.8906088 1.1524807e-38
-4.9085522 18.036629 1.8901643 1.1617002e-38
-4.8975034 18.037363 1.8897201 1.1617002e-38
-4.8864551 18.038097 1.8892758 1.1432611e-38
-4.8754063 18.038832 1.8888313 1.1432611e-38
-4.8643579 18.039564 1.8883871 1.1432611e-38
-4.8533092 18.040298 1.8879427 1.1432611e-38
-4.8422604 18.041033 1.8874983 1.1432611e-38
-4.816958 17.943844 1.8801795 1.1432611e-38
-4.806097 17.944565 1.8797427 1.143261e-38
-4.7952361 17.945286 1.8793057 1.143261e-38
-4.7980661 18.043968 1.8857213 1.143261e-38
-4.7735147 17.94673 1.8784324 1.143261e-38
-4.7626538 17.947451 1.8779956 1.1524805e-38
-4.7517929 17.948172 1.8775588 1.1617001e-38
-4.7538719 18.046906 1.8839443 1.1616998e-38
-4.7428231 18.04764 1.8834999 1.1524803e-38
-4.7192101 17.950336 1.8762487 1.1432607e-38
-4.720726 18.049107 1.8826113 1.1432607e-38
-4.7096777 18.049841 1.8821669 1.1340767e-38
-4.6986289 18.050575 1.8817225 1.1432963e-38
-4.6875801 18.05131 1.8812783 1.1524803e-38
-4.6765318 18.052042 1.880834 1.1524803e-38
-4.6540446 17.954666 1.8736281 1.1616998e-38
-4.6431837 17.955387 1.8731915 1.1616998e-38
-4.6323228 17.95611 1.8727546 1.1617001e-38
-4.6214619 17.956831 1.872318 1.1617001e-38
-4.6106009 17.957552 1.871881 1.1709198e-38
-4.59974 17.958273 1.8714443 1.1709198e-38
-4.5888791 17.958996 1.8710076 1.1801394e-38
-4.5881429 18.057915 1.8772795 1.1801394e-38
-4.5770946 18.058649 1.8768355 1.1801038e-38
-4.5562963 17.961161 1.8696975 1.1801038e-38
-4.5454354 17.961882 1.8692605 1.1893233e-38
-4.534575 17.962603 1.8688239 1.1893589e-38
-4.5237141 17.963326 1.8683871 1.1801394e-38
-4.5128531 17.964046 1.8679503 1.1801392e-38
-4.5019922 17.964767 1.8675137 1.1801392e-38
-4.4911313 17.965488 1.8670769 1.1893588e-38
-4.4887056 18.06452 1.8732809 1.1893588e-38
-4.4776573 18.065254 1.8728366 1.1801392e-38
-4.4666085 18.065989 1.8723923 1.1709197e-38
-4.4555597 18.066723 1.8719482 1.1709197e-38
-4.4445114 18.067457 1.8715036 1.1524805e-38
-4.4334626 18.068192 1.8710594 1.1524805e-38
-4.4224143 18.068926 1.8706151 1.143261e-38
-4.4113655 18.069658 1.8701707 1.1248219e-38
-4.4003172 18.070393 1.8697264 1.1156023e-38
-4.3892684 18.071127 1.8692822 1.1063827e-38
-4.3716612 17.973425 1.8622725 1.0971632e-38
-4.3671713 18.072596 1.8683938 1.0879436e-38
-4.3561225 18.073328 1.8679492 1.078724e-38
-4.3390784 17.97559 1.8609624 1.078724e-38
-4.3282175 17.976313 1.8605256 1.0879433e-38
-4.3173566 17.977034 1.8600888 1.1063825e-38
-4.3064957 17.977755 1.859652 1.1432607e-38
-4.2956347 17.978476 1.8592154 1.180139e-38
-4.2847738 17.979198 1.8587786 1.2262368e-38
-4.2739134 17.979919 1.8583419 1.2446759e-38
-4.2630525 17.98064 1.8579051 1.2539311e-38
-4.2521915 17.981363 1.8574684 1.2539311e-38
-4.2413306 17.982084 1.8570315 1.2539311e-38
-4.2304697 17.982805 1.8565947 1.2539311e-38
-4.2196088 17.983528 1.856158 1.2539311e-38
-4.2087479 17.984249 1.8557212 1.2631506e-38
-4.1978869 17.98497 1.8552846 1.2631503e-38
-4.187026 17.985693 1.8548478 1.2631506e-38
-4.1761651 17.986414 1.854411 1.2724065e-38
-4.1653042 17.987135 1.8539742 1.2724065e-38
-4.1544433 17.987856 1.8535376 1.2724065e-38
-4.1435823 17.988577 1.8531008 1.2631869e-38
-4.1327214 17.9893 1.8526641 1.2631869e-38
-4.1218605 17.990021 1.8522273 1.2631869e-38
-4.1109996 17.990742 1.8517905 1.2631869e-38
-4.1001387 17.991465 1.8513539 1.2631869e-38
-4.0877085 17.899857 1.8449626 1.2908456e-38
-4.077023 17.900566 1.8445328 1.2908456e-38
-4.0663376 17.901276 1.8441032 1.2908456e-38
-4.0556521 17.901987 1.8436735 1.3000652e-38
-4.0449667 17.902697 1.8432438 1.3000652e-38
-4.0349736 17.995792 1.8487332 1.3092847e-38
