# .PCD v0.7 - Point Cloud Data file format
VERSION 0.7
FIELDS x y z rgb
SIZE 4 4 4 4
TYPE F F F F
COUNT 1 1 1 1
WIDTH 127
HEIGHT 1
VIEWPOINT 0 0 0 1 0 0 0
POINTS 127
DATA ascii
-11.629703 17.394608 0.97046679 3.9589891e-39
-11.571462 17.397089 0.98158664 4.7869477e-39
-11.612595 17.403343 0.96726054 4.1426657e-39
-11.495977 17.414249 0.98615509 8.6540872e-39
-11.344183 17.423048 0.99479699 9.8511815e-39
-5.436842 17.76391 0.98861521 7.4689418e-39
-5.3699689 17.784842 0.99336678 1.8993026e-38
-11.64596 17.39373 1.1134923 6.6315721e-39
-11.574181 17.396629 1.0257025 5.804352e-39
-10.688513 17.366081 1.1411717 1.484531e-38
-10.499567 17.381931 1.1478993 1.5028618e-38
-10.38606 17.377186 1.1547823 8.5727292e-39
-11.62956 17.405909 1.1125777 3.8686025e-39
-11.495002 17.41168 1.1016508 8.1023624e-39
-11.295855 17.424698 1.0995016 1.0312155e-38
-11.098063 17.43841 1.1052891 1.1141187e-38
-10.909485 17.448345 1.114545 1.0682021e-38
-10.321003 17.488146 1.1359631 1.584568e-38
-5.432219 17.763086 1.1002725 8.0221016e-39
-5.2971296 17.78879 1.1037729 2.0191563e-38
-5.1872473 17.797941 1.1417767 2.0375594e-38
-5.2103467 17.800913 1.0522523 2.0190846e-38
-5.093049 17.811756 1.1220785 2.0098647e-38
-4.8997126 17.835447 1.1445482 1.9269247e-38
-4.7777057 17.854309 1.1575234 1.843985e-38
-4.5337067 17.855749 1.1723632 1.1247501e-38
-4.2586727 17.931055 1.1597531 9.7720109e-39
-4.0949903 17.901718 1.1597403 1.530339e-38
-3.9605205 17.922112 1.1567034 1.6685611e-38
-4.2713137 18.006207 1.1377518 5.6224915e-39
-11.646755 17.393848 1.3059862 6.4457459e-39
-11.59555 17.399609 1.3627729 3.7767754e-39
-10.685079 17.363848 1.2992105 1.5859818e-38
-10.496736 17.378407 1.2996072 1.5950931e-38
-10.384745 17.372406 1.3030396 8.8500434e-39
-11.626502 17.405321 1.292984 3.9608023e-39
-11.495479 17.4104 1.2997286 8.4715036e-39
-11.297357 17.424917 1.299292 1.1141555e-38
-11.097441 17.435249 1.2995418 1.1970945e-38
-10.906764 17.445326 1.3008333 1.1788366e-38
-10.314715 17.482096 1.301198 1.6951669e-38
-5.4330907 17.757826 1.3000816 8.1146546e-39
-5.2950759 17.785233 1.2999907 2.0468147e-38
-5.178472 17.795683 1.3080077 2.0652177e-38
-5.0777159 17.809038 1.2979292 2.0283394e-38
-4.8929658 17.83083 1.2995516 1.9545831e-38
-4.7704415 17.846897 1.3042837 1.880827e-38
-4.5325451 17.854126 1.2998251 1.1156023e-38
-4.2540188 17.922445 1.2997065 9.9567609e-39
-4.1005373 17.896936 1.2996951 1.5211912e-38
-3.9542146 17.919188 1.3017677 1.6870361e-38
-4.2708187 18.004639 1.2925041 5.0703911e-39
-11.639345 17.392263 1.5092065 8.1960055e-39
-11.571377 17.399376 1.5578936 9.8547926e-39
-10.681956 17.358519 1.4990375 1.6689937e-38
-10.496679 17.374632 1.499751 1.7242029e-38
-10.381883 17.366652 1.5028032 9.7723598e-39
-11.620288 17.404408 1.4955831 9.1175947e-39
-11.494868 17.410641 1.4996939 1.0590556e-38
-11.298155 17.422945 1.4994543 1.1879843e-38
-11.097566 17.43124 1.4997599 1.298582e-38
-10.90391 17.443155 1.5005184 1.2987989e-38
-10.305669 17.476133 1.5011746 1.8427888e-38
-5.4340916 17.754227 1.4996542 8.7611044e-39
-5.2950358 17.779888 1.4993968 2.0191918e-38
-5.1629357 17.79357 1.5104525 2.0375949e-38
-5.0649638 17.807367 1.4952056 2.0007165e-38
-4.8930798 17.825384 1.4991896 1.9177766e-38
-4.7622089 17.842035 1.5038785 1.8348011e-38
-4.5286531 17.850027 1.4994262 1.1248939e-38
-4.2557707 17.928064 1.4940982 1.0049675e-38
-4.1004181 17.89422 1.4995116 1.5213351e-38
-3.947557 17.915586 1.5019813 1.6963639e-38
-4.2693758 18.003574 1.4563903 4.9792759e-39
-11.633442 17.391592 1.6892906 8.2896417e-39
-11.567951 17.399139 1.6939243 1.0038827e-38
-10.679197 17.355604 1.6989081 1.7058359e-38
-10.496693 17.370178 1.6997341 1.8256182e-38
-10.377974 17.361805 1.7029541 1.1154941e-38
-11.61741 17.403215 1.7058753 9.5782155e-39
-11.49407 17.407997 1.6994883 1.0867508e-38
-11.297701 17.419411 1.6995391 9.8558898e-39
-11.098843 17.428362 1.7000027 1.1974929e-38
-10.900284 17.438324 1.7002406 1.3726282e-38
-10.29537 17.471498 1.7007226 1.9719001e-38
-5.4359045 17.748259 1.6968769 7.8384236e-39
-5.2968116 17.77586 1.7000443 1.9362156e-38
-5.1338558 17.792784 1.7119974 1.926996e-38
-5.0442638 17.804506 1.6835974 1.8993013e-38
-4.8935881 17.820862 1.6996714 1.8071058e-38
-4.753437 17.839296 1.7026492 1.7333499e-38
-4.5088234 17.847549 1.7087729 1.2077985e-38
-4.2843156 17.862753 1.7300266 1.3645669e-38
-4.1007514 17.891327 1.6994039 1.5212275e-38
-3.9399033 17.912331 1.7019472 1.7147671e-38
-11.62767 17.391006 1.9047346 8.6595186e-39
-11.56283 17.39904 1.9236709 1.0039565e-38
-10.679609 17.352291 1.8492407 1.6412631e-38
-10.505191 17.366507 1.8343662 1.8901193e-38
-10.376747 17.35956 1.8206604 1.2446047e-38
-11.615584 17.40344 1.8885821 9.9484484e-39
-11.495748 17.405596 1.898713 1.0867519e-38
-11.299119 17.415205 1.9000326 1.2157178e-38
-11.099081 17.426472 1.9005395 1.3725571e-38
-10.901539 17.435682 1.8882421 1.4372018e-38
-10.797362 17.437471 1.9301075 9.1280904e-39
-10.290496 17.471016 1.833726 2.1011917e-38
-5.4325385 17.743484 1.8983264 1.2172711e-38
-5.2968049 17.769855 1.8995762 1.9084849e-38
-5.1152978 17.788839 1.8926088 1.8070336e-38
-4.9933877 17.799818 1.8865728 1.7056542e-38
-5.0194054 17.801991 1.8641651 1.7425327e-38
-4.9032135 17.816599 1.855997 1.6872153e-38
-4.7525797 17.83946 1.8328532 1.6227148e-38
-4.5015759 17.866512 1.8574692 1.2629722e-38
-4.3024769 17.87915 1.8508803 1.3920817e-38
-4.0984292 17.897165 1.8440013 1.5764009e-38
-3.9348023 17.911898 1.8399926 1.7146586e-38
-11.610998 17.387894 2.0461748 8.8442658e-39
-11.579648 17.395254 2.0698736 9.4885548e-39
-11.606927 17.401388 2.0236645 9.7647858e-39
-11.491477 17.405687 2.0469601 1.031579e-38
-11.31251 17.413136 2.0299981 1.2066061e-38
-11.136456 17.420132 2.0118184 1.3449349e-38
-5.4311204 17.738871 2.042968 1.1158199e-38
-5.3194094 17.763432 2.0265679 1.7240576e-38
-5.1882334 17.77733 2.004379 1.7332777e-38
