# .PCD v0.7 - Point Cloud Data file format
VERSION 0.7
FIELDS x y z rgb
SIZE 4 4 4 4
TYPE F F F F
COUNT 1 1 1 1
WIDTH 538
HEIGHT 1
VIEWPOINT 0 0 0 1 0 0 0
POINTS 538
DATA ascii
-4.4358044 6.9669924 -0.0046816226 9.5847428e-39
-4.4482188 7.1362615 -0.024254719 9.5861777e-39
-4.4554801 7.2885795 -0.025075074 9.7712864e-39
-4.4593043 7.4869771 -0.020958677 1.0139354e-38
-4.4649229 7.7335262 -0.036261022 1.0782927e-38
-4.4682322 7.9264483 -0.029175427 1.1153138e-38
-4.4716473 8.1166592 -0.028361423 1.1521917e-38
-4.464581 8.2794456 -0.029299052 1.1613756e-38
-4.4670801 8.4924507 -0.022668295 1.1706304e-38
-4.4996033 8.9429798 -0.048788447 1.2905932e-38
-4.4861102 9.0506773 -0.068601295 1.1705956e-38
-4.4375386 6.3722486 0.19450961 1.4104134e-38
-4.4348035 6.516355 0.16459101 1.4104134e-38
-4.4382367 6.7015214 0.12899701 1.3735707e-38
-4.4407945 6.891736 0.11529096 1.3366923e-38
-4.4451509 7.0840106 0.10199063 1.336692e-38
-4.4612789 7.2974453 0.099231012 1.4013369e-38
-4.4643264 7.5007005 0.094257399 1.4196321e-38
-4.4631314 7.7125211 0.11306347 1.4749853e-38
-4.4625325 7.9411397 0.10535949 1.5210471e-38
-4.4512281 8.0994291 0.10184845 1.4934242e-38
-4.4662786 8.3053684 0.12164256 1.521119e-38
-4.4623456 8.4634886 0.10240845 1.5579974e-38
-4.4814696 8.6959562 0.097695269 1.5671807e-38
-4.4825587 8.8795366 0.10518967 1.5947678e-38
-4.4785886 9.0661907 0.1163473 1.5855842e-38
-4.4821262 9.291935 0.12532273 1.5671451e-38
-4.421463 5.9478421 0.3798202 1.419741e-38
-4.4286656 6.1175756 0.34221485 1.4381438e-38
-4.4318895 6.3039536 0.3156524 1.4289598e-38
-4.4366999 6.4949598 0.29632941 1.42896e-38
-4.441586 6.7002892 0.30238461 1.4197404e-38
-4.4426961 6.9089427 0.29631424 1.4289242e-38
-4.4453754 7.0975366 0.30360681 1.4565466e-38
-4.4600229 7.3059068 0.29316774 1.4565826e-38
-4.4603233 7.4919276 0.29801112 1.4657659e-38
-4.4676533 7.7184849 0.2948975 1.4749857e-38
-4.4708533 7.9185777 0.2901755 1.4934246e-38
-4.4707646 8.1032085 0.31096572 1.530267e-38
-4.4673491 8.2996922 0.3083823 1.5395224e-38
-4.4653764 8.4949083 0.30602288 1.5579255e-38
-4.4693484 8.6720743 0.30141771 1.5763286e-38
-4.4836602 8.9129515 0.29151687 1.5947672e-38
-4.4844246 9.1169128 0.30683264 1.5855836e-38
-4.4919481 9.2948551 0.32303432 1.5855481e-38
-4.486495 9.4155064 0.27555135 1.5671089e-38
-4.4038501 5.3853931 0.5970394 1.4381805e-38
-4.4075174 5.5162358 0.57062197 1.4565833e-38
-4.4171085 5.7026715 0.53054053 1.4566191e-38
-4.4219451 5.893878 0.50327784 1.4658745e-38
-4.4243937 6.0946832 0.5016337 1.4751299e-38
-4.4286461 6.2993665 0.50004029 1.4843492e-38
-4.434339 6.4998775 0.50384414 1.4843133e-38
-4.4403114 6.7112947 0.49825591 1.4750936e-38
-4.4405398 6.9115987 0.49950966 1.4658023e-38
-4.4405065 7.0917568 0.50573826 1.4565825e-38
-4.4541583 7.3063083 0.50102407 1.4473629e-38
-4.4647231 7.494009 0.49833667 1.4381434e-38
-4.4692707 7.7032905 0.50130689 1.4473272e-38
-4.4692163 7.914196 0.49947706 1.465766e-38
-4.4660535 8.0942478 0.50747555 1.484241e-38
-4.4726148 8.3129778 0.49938133 1.5118994e-38
-4.4813933 8.5057983 0.4740718 1.539558e-38
-4.4807367 8.6703234 0.49701044 1.5579614e-38
-4.4840131 8.9043245 0.49815255 1.567217e-38
-4.4761438 9.1289244 0.4970966 1.5763645e-38
-4.4830227 9.3255587 0.48290658 1.5762926e-38
-4.4707689 9.4014082 0.5951795 1.5487773e-38
-4.4954181 9.6971674 0.57444096 1.5395577e-38
-4.4916601 9.9141235 0.54714298 1.4934599e-38
-4.5069628 10.114571 0.54781836 1.4750208e-38
-4.5128088 10.253004 0.57244533 1.4565817e-38
-4.05654 17.927486 0.59787303 1.0971644e-38
-3.8915117 17.930063 0.59428114 1.1339705e-38
-3.6905351 17.950829 0.58680314 1.1432258e-38
-3.5404625 17.944838 0.58636725 1.1431897e-38
-4.3929791 4.9590373 0.78161603 1.4104135e-38
-4.4019747 5.1459661 0.73321617 1.4381438e-38
-4.3965316 5.0997891 0.7564404 1.4289602e-38
-4.4037347 5.306366 0.71325374 1.4658388e-38
-4.3982301 5.2811656 0.71540493 1.4566552e-38
-4.4074717 5.4944401 0.70006353 1.4935691e-38
-4.3991027 5.4868193 0.7372781 1.5120082e-38
-4.4156985 5.6968045 0.69756055 1.5304475e-38
-4.4224901 5.8978796 0.70088184 1.5581061e-38
-4.4258795 6.099566 0.6995241 1.5581417e-38
-4.4307194 6.3038721 0.69877845 1.548922e-38
-4.436265 6.4998097 0.69881666 1.5396306e-38
-4.4382081 6.6979427 0.70171779 1.5119e-38
-4.4399414 6.9026818 0.70686811 1.4750216e-38
-4.444973 7.1000018 0.69368869 1.4473988e-38
-4.4504504 7.2893882 0.70611668 1.4381432e-38
-4.4652309 7.5011387 0.70859116 1.4289234e-38
-4.4679904 7.7073283 0.70321292 1.4289235e-38
-4.4680076 7.8985381 0.68060517 1.4473624e-38
-4.4701023 8.087595 0.69295436 1.4750571e-38
-4.4666967 8.3026943 0.70218456 1.5211187e-38
-4.46665 8.5166483 0.70185369 1.5579968e-38
-4.4755082 8.6974535 0.68179834 1.5672165e-38
-4.4800539 8.9010601 0.7092455 1.5856914e-38
-4.4840479 9.1373911 0.70191026 1.5948752e-38
-4.484684 9.3248529 0.67879158 1.5856557e-38
-4.4769621 9.4586391 0.64227879 1.5672164e-38
-4.4867754 9.6579828 0.64095783 1.5303382e-38
-4.4911723 9.9140978 0.69788712 1.474985e-38
-4.4924736 10.116673 0.6707238 1.4565459e-38
-4.5046678 10.287752 0.70980436 1.4289235e-38
-4.499506 10.472192 0.64684683 1.3920813e-38
-6.3528504 17.713358 0.73820603 1.1338249e-38
-6.3625875 17.822643 0.76488304 4.8859914e-39
-5.4258051 17.841402 0.7287991 3.9640562e-39
-5.2964096 17.851904 0.72586071 9.9556861e-39
-5.0979433 17.854794 0.72256285 1.032483e-38
-4.8995543 17.872244 0.71711183 1.0325552e-38
-4.7000594 17.888172 0.71253061 1.0325913e-38
-4.5036955 17.898657 0.71275437 1.0418829e-38
-4.2904272 17.910414 0.71457052 1.0695775e-38
-4.0514159 17.931992 0.79534382 1.1155671e-38
-3.8783455 17.944235 0.79181075 1.1432255e-38
-3.6939812 17.943977 0.78922534 1.1524452e-38
-3.5507941 17.951315 0.78471082 1.1432617e-38
-3.3196831 17.941767 0.73752183 1.1524814e-38
-4.3809404 4.522676 0.96932721 1.3181813e-38
-4.3847151 4.7027116 0.93307889 1.3643508e-38
-4.4002986 4.9805679 0.89307064 1.4197765e-38
-4.389534 4.8956318 0.90306652 1.410521e-38
-4.401484 5.1057553 0.87432551 1.4566549e-38
-4.3959999 5.0965471 0.90451634 1.4658744e-38
-4.4032493 5.3113351 0.88356668 1.5304114e-38
-4.3974481 5.2737894 0.92106885 1.5304473e-38
-4.406486 5.4948602 0.9001019 1.5857647e-38
-4.3983245 5.4540143 0.9327305 1.5949841e-38
-4.4156137 5.6980433 0.89931053 1.6318624e-38
-4.4243574 5.8976102 0.90070266 1.6410818e-38
-4.4288249 6.1007357 0.90039569 1.6318981e-38
-4.4301786 6.2962475 0.89908224 1.6042393e-38
-4.4348855 6.4821143 0.90440112 1.5765447e-38
-4.4390254 6.6828012 0.89995027 1.5304469e-38
-4.4437985 6.9000006 0.89559066 1.4751295e-38
-4.4461856 7.0942397 0.89769906 1.4382513e-38
-4.4494729 7.2879362 0.90211284 1.4197758e-38
-4.4634085 7.5142708 0.90716279 1.410556e-38
-4.4658504 7.7121773 0.8894527 1.4197757e-38
-4.4633422 7.8950362 0.91512758 1.4473985e-38
-4.4557304 8.0753775 0.89477843 1.4842768e-38
-4.4604282 8.312068 0.89537418 1.5395581e-38
-4.4751568 8.5160065 0.93509614 1.5856921e-38
-4.4753571 8.706953 0.90410858 1.5949477e-38
-4.4696012 8.9102783 0.89961213 1.6318257e-38
-4.4823117 9.134038 0.89731741 1.6501925e-38
-4.4837165 9.3389034 0.87346816 1.6317173e-38
-4.4844704 9.4971123 0.89783865 1.6224622e-38
-4.4900298 9.6706085 0.86250401 1.5763644e-38
-4.4889216 9.9041958 0.81961316 1.5026796e-38
-4.4981694 10.110031 0.82304525 1.4842403e-38
-4.5126619 10.245632 0.82882553 1.4842403e-38
-6.3472848 17.719919 0.89969635 1.0877263e-38
-6.3550377 17.812582 0.89633471 5.1615035e-39
-5.4035349 17.838102 0.9774546 4.1480747e-39
-5.2978687 17.848625 0.92405516 9.5876182e-39
-5.1002192 17.859539 0.91879857 1.004824e-38
-4.8997726 17.874475 0.91506267 1.0048961e-38
-4.7009277 17.891491 0.90977442 9.8652911e-39
-4.4988346 17.890024 0.90809476 8.3908785e-39
-4.2995024 17.89864 0.90368366 8.759661e-39
-4.0990448 17.920303 0.9000755 1.0326988e-38
-3.9000456 17.942297 0.90012586 1.152517e-38
-3.6985109 17.951149 0.89943153 1.170956e-38
-3.5511189 17.951637 0.90251887 1.1709205e-38
-3.3068733 17.958155 0.89981675 1.1801401e-38
-4.4585772 4.3405786 1.1262628 1.8417518e-39
-4.3745627 4.3618231 1.1167799 4.6076165e-39
-4.3782849 4.4960766 1.1005346 1.3181813e-38
-4.3837237 4.6941037 1.0997109 1.3827901e-38
-4.3865271 4.8930326 1.1006216 1.4382155e-38
-4.400897 5.1747041 1.0759411 1.5396666e-38
-4.3937349 5.0924697 1.1015356 1.5211916e-38
-4.4032578 5.3190784 1.1044052 1.6134232e-38
-4.3973126 5.2642708 1.0931706 1.5949841e-38
-4.4069881 5.4963164 1.0985513 1.6779603e-38
-4.3981252 5.4356341 1.0905237 1.6595212e-38
-4.4147215 5.6946135 1.1027184 1.7240939e-38
-4.4237647 5.8958993 1.1005348 1.7425331e-38
-4.4266105 6.0861926 1.100937 1.7333493e-38
-4.4308271 6.2894583 1.1010991 1.6964352e-38
-4.4322705 6.4917154 1.1023291 1.6411535e-38
-4.4363551 6.6971321 1.0922592 1.5581775e-38
-4.4419341 6.895596 1.1015048 1.5028242e-38
-4.4436493 7.0957723 1.1032072 1.4567261e-38
-4.4491634 7.2985249 1.0946161 1.419848e-38
-4.463841 7.5283809 1.0981172 1.419776e-38
-4.4623694 7.7197223 1.0996288 1.4289955e-38
-4.4618049 7.8946776 1.0976015 1.4566901e-38
-4.4619236 8.079257 1.1030523 1.5120432e-38
-4.4607267 8.2966681 1.1091202 1.5950194e-38
-4.46628 8.5041685 1.0724677 1.6411174e-38
-4.4768434 8.6714582 1.1152533 1.6872151e-38
-4.4772129 8.934412 1.0987697 1.7240574e-38
-4.4754119 9.1196299 1.0745387 1.733205e-38
-4.4777894 9.2788639 1.065784 1.7331687e-38
-6.3475928 17.731878 1.1051254 9.3102999e-39
-5.4183764 17.798887 1.0194094 1.7538918e-39
-6.3546391 17.815123 1.1012191 5.0693009e-39
-5.4047089 17.847225 1.1015066 4.7934469e-39
-5.3012071 17.851282 1.0992906 9.4954268e-39
-5.1006093 17.861179 1.0997262 9.8638506e-39
-4.9010086 17.875795 1.0990127 9.9567651e-39
-4.7015486 17.887623 1.0999193 9.7730941e-39
-4.5261879 17.874664 1.0907141 7.7462252e-39
-4.2606544 17.891151 1.0750308 7.1008544e-39
-4.1005015 17.91275 1.0997747 1.0142954e-38
-3.9001713 17.934227 1.0997219 1.1801755e-38
-3.6993163 17.954075 1.099479 1.2077983e-38
-3.5442562 17.957586 1.102017 1.2077989e-38
-3.2997029 17.961042 1.1002278 1.226238e-38
-3.1982405 17.959944 1.1371751 1.216983e-38
-4.2664475 18.021748 1.1294396 4.609413e-39
-3.373594 18.005621 1.1343063 1.2447126e-38
-4.4440403 4.3393197 1.2998359 1.565525e-39
-4.3727808 4.3629584 1.2991213 4.607978e-39
-4.3768206 4.4969192 1.3006291 1.2998142e-38
-4.3799524 4.6951156 1.3002588 1.382898e-38
-4.3824315 4.8930135 1.298529 1.465946e-38
-4.401432 5.171463 1.2741085 1.6042753e-38
-4.3927364 5.0929351 1.3002003 1.5765807e-38
-4.4039097 5.3123202 1.3042357 1.6964712e-38
-4.3971705 5.2630062 1.2918134 1.6688125e-38
-4.4083076 5.4936762 1.3031034 1.7978865e-38
-4.3984761 5.445519 1.2839732 1.7702278e-38
-4.4125953 5.68291 1.2988601 1.8624235e-38
-4.3993006 5.7142205 1.3600428 1.9361801e-38
-4.4208875 5.8881226 1.300794 1.8900823e-38
-4.4237227 6.0906472 1.2983861 1.871643e-38
-4.4263029 6.2925839 1.3032968 1.807142e-38
-4.4291859 6.5043406 1.2972661 1.7057265e-38
-4.430418 6.6984506 1.305989 1.6134948e-38
-4.4353161 6.8854933 1.2959504 1.5305186e-38
-4.441196 7.0980048 1.301821 1.4659818e-38
-4.4439526 7.2910323 1.3023486 1.4291036e-38
-4.4566288 7.5151939 1.2906463 1.4290674e-38
-4.4576917 7.7030864 1.3088412 1.4475066e-38
-4.4658008 7.9108849 1.2975249 1.4751654e-38
-4.4647651 8.0716486 1.2889284 1.5397021e-38
-4.4663734 8.2990999 1.3124119 1.6503369e-38
-4.4699411 8.4921761 1.3005662 1.733313e-38
-4.4745412 8.6820316 1.2889829 1.7978141e-38
-4.4721661 8.9167852 1.2869421 1.843876e-38
-4.4689388 9.1099787 1.3353474 1.8807541e-38
-4.4758482 9.2723608 1.3163658 1.8715702e-38
-6.3470335 17.734941 1.2996062 8.8493203e-39
-6.349175 17.815535 1.2977723 4.6097647e-39
-5.4043174 17.855267 1.2913685 5.8079589e-39
-5.2981496 17.852028 1.2993021 9.3110355e-39
-5.1016588 17.8638 1.2998486 9.4954282e-39
-4.9002156 17.874493 1.2999483 9.5883413e-39
-4.7008271 17.883757 1.2997408 9.5894203e-39
-4.5327907 17.878775 1.3001807 7.7465825e-39
-4.2275968 17.893789 1.2980014 7.1012159e-39
-4.0996542 17.916395 1.2996757 1.0235507e-38
-3.8996713 17.931194 1.2994339 1.189503e-38
-3.7005951 17.947556 1.3000261 1.2263454e-38
-3.5366743 17.960754 1.301492 1.2355295e-38
-3.2969465 17.960049 1.2997854 1.2540046e-38
-3.1940277 17.953066 1.3155631 1.2447855e-38
-4.454493 18.020754 1.3730934 7.0079413e-39
-4.2645221 18.017609 1.2926145 4.7001723e-39
-4.444654 4.33915 1.4994199 1.3814939e-39
-4.3715019 4.364069 1.499385 4.7008939e-39
-4.3740425 4.4974017 1.4999963 1.2814834e-38
-4.3758807 4.6930008 1.4995244 1.3829702e-38
-4.3792181 4.8904119 1.5004088 1.5028604e-38
-4.4015498 5.1811428 1.4515173 1.6597008e-38
-4.391459 5.0914698 1.5025371 1.6320063e-38
-4.4033561 5.316977 1.4883618 1.7979227e-38
-4.3967457 5.25915 1.5145277 1.7703e-38
-4.406796 5.495388 1.4973857 1.9453997e-38
-4.398756 5.4893522 1.5532739 2.0007172e-38
-4.4096084 5.6914887 1.498379 2.0468149e-38
-4.3990564 5.688302 1.5863712 2.1574496e-38
-4.4181252 5.9005551 1.5040354 2.0929127e-38
-4.4198561 6.0974755 1.4993887 2.0560344e-38
-4.4219217 6.2949452 1.4996952 1.9454354e-38
-4.4245987 6.4940028 1.4998467 1.807142e-38
-4.4293542 6.6914144 1.4932237 1.6688484e-38
-4.4325881 6.8845801 1.5018923 1.5673972e-38
-4.4357705 7.0859542 1.5034328 1.4843851e-38
-4.4414887 7.2922101 1.4909451 1.4291393e-38
-4.4541769 7.501699 1.5104858 1.4291033e-38
-4.4605985 7.7091565 1.5000732 1.4475429e-38
-4.4615469 7.8837619 1.5067483 1.4936404e-38
-4.4642897 8.0699387 1.5005194 1.567397e-38
-4.457963 8.2645454 1.4980443 1.7056905e-38
-4.4666266 8.4968634 1.4720299 1.8163252e-38
-4.4708147 8.6823044 1.4946268 1.9177046e-38
-4.4745421 8.902154 1.5132712 2.0098643e-38
-4.4849043 9.0564737 1.5562845 2.0467783e-38
-6.3413644 17.730778 1.4978031 8.6656479e-39
-6.3530912 17.811197 1.5038186 4.5172117e-39
-5.4026384 17.858082 1.4974357 5.6246551e-39
-5.297905 17.853601 1.5008339 8.8504203e-39
-5.1007719 17.862646 1.4995041 8.9429747e-39
-4.9001036 17.872616 1.499704 9.0358892e-39
-4.7012835 17.885336 1.4993067 9.1288037e-39
-4.5273161 17.883051 1.4979136 7.562194e-39
-4.2243576 17.888756 1.4909339 7.4707159e-39
-4.1001883 17.915926 1.4996058 1.0235869e-38
-3.8999493 17.931108 1.4999216 1.1987586e-38
-3.701056 17.943453 1.499698 1.2448564e-38
-3.5298662 17.95899 1.5015135 1.2724439e-38
-3.2960706 17.9583 1.4993517 1.3001026e-38
-3.1869054 17.954908 1.5149863 1.2908473e-38
-4.2598176 18.0124 1.4773697 4.7019715e-39
-4.4456949 4.3375421 1.6970578 1.2892997e-39
-4.3696361 4.3606391 1.7026967 5.1615189e-39
-4.3721781 4.4969754 1.6991736 1.2998509e-38
-4.3755379 4.6944103 1.7005066 1.3921542e-38
-4.3763676 4.8944254 1.6999383 1.5305193e-38
-4.3853207 5.0994878 1.6997983 1.7149107e-38
-4.4020224 5.3520565 1.6431866 1.9361444e-38
-4.3929315 5.293849 1.7075291 1.9177053e-38
-4.4038062 5.5246973 1.6844445 2.1205715e-38
-4.396656 5.4747372 1.7124984 2.1113159e-38
-4.4058342 5.6982679 1.6983485 2.2588289e-38
-4.3978138 5.6483493 1.7146459 2.2588289e-38
-4.4145713 5.8988233 1.6959637 2.2956712e-38
-4.4182873 6.1022902 1.7011982 2.2680125e-38
-4.4216676 6.3029346 1.6984829 2.1205712e-38
-4.425015 6.5056944 1.7008907 1.9453994e-38
-4.4280605 6.7035375 1.7006267 1.7886311e-38
-4.4295964 6.8861933 1.7016513 1.6779959e-38
-4.4351044 7.0939722 1.6993928 1.5950198e-38
-4.4370604 7.2910614 1.7016646 1.5673609e-38
-4.444756 7.4960928 1.6998 1.5673249e-38
-4.4576898 7.7025743 1.6916341 1.5581054e-38
-4.4622889 7.8861213 1.705127 1.6318264e-38
-4.4605441 8.0634804 1.6949956 1.6871442e-38
-4.4592853 8.2667408 1.7046816 1.8346926e-38
-4.4645495 8.4992628 1.7017517 1.9729861e-38
-4.4679627 8.6618729 1.672369 2.065182e-38
-4.4693327 8.9250355 1.6392382 2.102132e-38
-4.4784603 9.0572243 1.6173036 2.102132e-38
-6.3373175 17.729679 1.7007089 8.3883408e-39
-6.34759 17.810911 1.7011756 4.0565895e-39
-5.402832 17.858437 1.6549964 5.2551481e-39
-5.2990227 17.855011 1.7002419 8.297248e-39
-5.1022091 17.864586 1.7001212 8.3894436e-39
-4.8997402 17.871801 1.6992767 8.3905212e-39
-4.7004709 17.883921 1.6995703 8.5752712e-39
-4.5064359 17.875443 1.7056065 7.930978e-39
-4.2921772 17.893106 1.7200673 8.392675e-39
-4.0994902 17.914917 1.6990613 1.0143673e-38
-3.9000652 17.931105 1.6995058 1.1802836e-38
-3.7007582 17.945362 1.6992748 1.2448205e-38
-3.5230856 17.956402 1.7019374 1.2724439e-38
-3.2962861 17.958916 1.7001177 1.3001026e-38
-3.181833 17.948952 1.7046893 1.281628e-38
-4.4288845 18.011536 1.6491067 2.8587876e-39
-4.3125005 18.011192 1.6290833 3.7807397e-39
-4.4480557 4.3373127 1.9023349 1.3814953e-39
-4.37044 4.3594141 1.8993553 6.8203214e-39
-4.369206 4.4928975 1.9004664 1.4656588e-38
-4.375061 4.6918736 1.8994623 1.4934616e-38
-4.3767962 4.8926239 1.8995155 1.5580707e-38
-4.3820748 5.0957894 1.9007858 1.714875e-38
-4.3877993 5.298203 1.8998287 1.9730225e-38
-4.4014978 5.5336137 1.8464891 2.3048907e-38
-4.3930669 5.4958949 1.9049479 2.2587929e-38
-4.4026895 5.7203679 1.8855401 2.3325494e-38
-4.3957086 5.6839976 1.9105313 2.3325494e-38
-4.4106975 5.9035172 1.8983713 2.3233299e-38
-4.3986907 5.8936501 1.9128879 2.3325494e-38
-4.4144778 6.0921493 1.8970938 2.3325494e-38
-4.4181252 6.2915549 1.8987279 2.2680124e-38
-4.42485 6.489562 1.9010779 2.0744015e-38
-4.4282851 6.6975703 1.904019 1.8900099e-38
-4.4307437 6.9069681 1.9016733 1.8254726e-38
-4.4322081 7.0965528 1.8988951 1.8623149e-38
-4.4314466 7.2727213 1.9053568 1.9176322e-38
-4.4448543 7.4792438 1.8873945 1.908449e-38
-4.4569559 7.6987739 1.9061666 2.0098642e-38
-4.4655099 7.915297 1.9025759 2.0098643e-38
-4.4558086 8.0741329 1.9003869 2.0743654e-38
-4.4521837 8.2798748 1.9023427 2.1665611e-38
-4.4536071 8.4917574 1.8975894 2.2864515e-38
-4.460937 8.648386 1.8826215 2.3325494e-38
-4.4734292 8.8604774 1.9467663 2.3325494e-38
-6.3290682 17.726793 1.8988284 8.1113923e-39
-6.3456283 17.808979 1.8900516 3.5034157e-39
-5.4087834 17.842333 1.864984 3.7821914e-39
-5.2979465 17.854385 1.8995359 7.7440756e-39
-5.1007133 17.864893 1.9000151 7.8362712e-39
-4.899765 17.875513 1.8999856 7.8369887e-39
-4.6990952 17.88373 1.8991805 8.1135742e-39
-4.4998169 17.898155 1.8998561 8.3908799e-39
-4.3000321 17.91271 1.8997632 9.1288037e-39
-4.0998902 17.918505 1.8997272 9.9585644e-39
-3.9004974 17.930952 1.8996818 1.1064552e-38
-3.7004054 17.949709 1.8999176 1.1893952e-38
-3.5167067 17.952763 1.9018112 1.2170545e-38
-3.2952621 17.956329 1.900113 1.2263101e-38
-3.1747582 17.941057 1.9053031 1.2078353e-38
-4.465745 4.3393855 2.0078409 1.1971027e-39
-4.3717918 4.3666906 2.0045662 7.0969069e-39
-4.3689027 4.5137701 2.0308883 1.5854041e-38
-4.3719859 4.702014 2.0630565 1.8897216e-38
-4.3747487 4.8978114 2.0957763 1.9543674e-38
-4.3811746 5.096972 2.0994191 1.7977435e-38
-4.3845148 5.2937489 2.097106 1.8992305e-38
-4.3884349 5.4954896 2.1020329 2.1942561e-38
-4.4014421 5.7251921 2.0749657 2.341769e-38
-4.3939886 5.6982431 2.0994017 2.3325494e-38
-4.4047079 5.9160485 2.0907276 2.3325494e-38
-4.3972707 5.8640814 2.1332355 2.3417689e-38
-4.4090414 6.0983829 2.0983691 2.3141103e-38
-4.3970447 6.0581155 2.1447468 2.3141102e-38
-4.4147201 6.3023338 2.1009767 2.2034753e-38
-4.4188194 6.4970355 2.1001174 2.1573413e-38
-4.4204545 6.6924739 2.098707 2.1573412e-38
-4.4271674 6.9053836 2.1015966 2.0559618e-38
-4.4288225 7.0963573 2.1015668 1.9176328e-38
-4.4274035 7.2796683 2.1024482 1.7608641e-38
-4.4338474 7.472415 2.1010771 1.6041311e-38
-4.4478679 7.6946754 2.0956936 1.6041311e-38
-4.4527574 7.8997803 2.1071222 1.6871072e-38
-4.466198 8.1104317 2.0927737 1.8714625e-38
-4.455183 8.271698 2.0956061 1.9821336e-38
-4.4548097 8.5036688 2.1014593 2.1850001e-38
-4.4500618 8.6897345 2.1059306 2.295671e-38
-4.4596152 8.8909311 2.152869 2.3233659e-38
-4.466301 9.1319275 2.1714225 2.332585e-38
-4.459476 9.2691326 2.1370652 2.3325853e-38
-6.3198547 17.726854 2.090312 6.7277432e-39
-5.4025431 17.794788 2.0107076 5.1694643e-39
-6.3362994 17.803574 2.071388 2.9487972e-39
-5.4505539 17.834383 2.1461263 2.0293941e-39
-5.2966189 17.852272 2.0998013 7.2830974e-39
-5.1007438 17.862179 2.0992138 7.4671286e-39
-4.8998299 17.874113 2.1000037 7.4674859e-39
-4.6988854 17.884083 2.0995004 7.5600416e-39
-4.5000567 17.89444 2.0997908 7.1912577e-39
-4.300529 17.907686 2.0992045 7.4682034e-39
-4.0997677 17.916471 2.1000071 8.8511364e-39
-3.9000928 17.930637 2.0998662 1.0141514e-38
-3.7008641 17.942499 2.0968695 1.1063469e-38
-3.5131898 17.941135 2.0897927 1.1432257e-38
-3.3475666 17.963631 2.1446071 1.1248224e-38
-3.1704636 17.929071 2.1022758 1.1340067e-38
-4.37395 4.9677186 2.2101696 2.3232934e-38
-4.3795819 5.1204753 2.2390282 2.1941477e-38
-4.3817973 5.3038445 2.2701507 1.9452562e-38
-4.3853045 5.4972539 2.3000174 2.028304e-38
-4.3890853 5.6935177 2.2972009 2.2587572e-38
-4.4037657 5.924468 2.2741308 2.3141103e-38
-4.3954806 5.8693943 2.3253613 2.2587929e-38
-4.4043989 6.095037 2.3022077 2.083621e-38
-4.397418 6.0678978 2.2924771 2.1204633e-38
-4.4074082 6.2969317 2.2950599 1.742425e-38
-4.397778 6.3052659 2.3387637 1.6133153e-38
-4.4107685 6.5011363 2.2944925 1.5119357e-38
-4.396841 6.4940023 2.3946009 1.3367275e-38
-4.4145541 6.695878 2.3014619 1.419704e-38
-4.4185371 6.8983183 2.304868 1.4289231e-38
-4.4209523 7.0869284 2.2962611 1.5948036e-38
-4.4231029 7.2768173 2.2996104 1.7700109e-38
-4.4238467 7.4626918 2.3084714 1.8253283e-38
-4.4453297 7.7116756 2.2979889 1.9175597e-38
-4.4473205 7.9081941 2.3033118 1.8069246e-38
-4.4619102 8.1332779 2.2999609 1.6041308e-38
-4.4536228 8.2971325 2.2936659 1.5396303e-38
-4.45154 8.5248709 2.301219 1.6226065e-38
-4.4539852 8.7219858 2.2840466 1.862315e-38
-4.4541335 8.897953 2.3103044 1.9636938e-38
-4.4621696 9.0950165 2.2914786 2.0097556e-38
-4.4748545 9.2734537 2.2821376 1.9636573e-38
-4.4621749 9.5006857 2.3012891 1.5763625e-38
-4.467905 9.6985416 2.3002682 1.6777784e-38
-4.4679389 9.8632812 2.3318541 1.5025709e-38
-4.4715056 10.075279 2.3819392 1.2997409e-38
-4.4891591 10.211011 2.3404963 1.6132058e-38
-6.3105254 17.658962 2.300139 1.8991934e-38
-5.6184831 17.821445 2.3023999 7.190899e-39
-5.5000091 17.833811 2.3040719 6.3607824e-39
-5.2787199 17.848936 2.2432439 7.0065091e-39
-5.103313 17.863142 2.2409823 7.006149e-39
-4.9028478 17.871359 2.2320211 7.0983432e-39
-4.7053704 17.882429 2.2252772 7.1912563e-39
-4.5072384 17.891516 2.2184286 7.3756476e-39
-4.3054852 17.907038 2.2133348 7.6525946e-39
-4.115109 17.917046 2.2077258 8.4823539e-39
-3.9434428 17.931528 2.2052684 9.2199175e-39
-3.7005985 17.925331 2.2999561 9.6805355e-39
-3.5003026 17.93544 2.2939806 1.0233708e-38
-3.3024797 17.915565 2.2819719 1.0326266e-38
-3.1595552 17.928051 2.2855682 1.0049326e-38
-4.3845692 5.5526538 2.4151254 1.8715356e-38
-4.3869457 5.7075415 2.4450986 1.9361082e-38
-4.402894 5.8998551 2.490772 1.8806825e-38
-4.3923273 5.9064417 2.4822383 1.825365e-38
-4.4029112 6.1037555 2.4921887 1.6225341e-38
-4.3940849 6.0782905 2.50419 1.5303027e-38
-4.4045868 6.2847319 2.4733343 1.4473266e-38
-4.395875 6.2683015 2.4931281 1.3827894e-38
-4.4069943 6.4906197 2.475451 1.2537517e-38
-4.3966708 6.502903 2.4956141 1.1707393e-38
-4.4091148 6.6930332 2.4753118 1.1431169e-38
-4.3985748 6.6198211 2.4548779 1.1799592e-38
-4.4168315 6.8976617 2.4707854 1.0969828e-38
-4.3974681 6.9090009 2.5135491 9.9560336e-39
-4.4171929 7.0938339 2.4489179 1.0969828e-38
-4.3955126 7.1004572 2.4252896 1.106202e-38
-4.4171433 7.2685761 2.4638636 1.0693241e-38
-4.4191871 7.4649348 2.4584846 1.1061664e-38
-4.4358935 7.7027879 2.4636943 1.179923e-38
-4.4481664 7.9327307 2.4504979 1.3458028e-38
-4.4473524 8.128108 2.4563429 1.4103396e-38
-4.446703 8.280755 2.4737272 1.3827168e-38
-4.4508433 8.5155764 2.4549997 1.5026072e-38
-4.444077 8.7258711 2.4443007 1.5672158e-38
-4.445621 8.8901863 2.4363203 1.6500835e-38
-4.440506 9.0754309 2.4349666 1.5118619e-38
-4.458374 9.3058577 2.4314275 1.4381057e-38
-4.4578776 9.5037394 2.4290607 1.2905211e-38
-4.4624772 9.6968117 2.4331994 1.2074732e-38
-4.464201 9.8425379 2.4185495 1.1982894e-38
-4.4642606 10.077255 2.4114773 1.1799936e-38
-6.3150759 17.66099 2.400372 1.7884143e-38
-5.5191689 17.795843 2.4670746 5.9923488e-39
-5.4845691 17.828529 2.4515493 6.1763897e-39
-5.3063498 17.853025 2.4500024 6.1760268e-39
-5.1026397 17.847553 2.4427142 5.8997986e-39
-4.9044652 17.857576 2.4335158 5.8079617e-39
-4.7009764 17.867271 2.426646 5.9005175e-39
-4.5065227 17.877838 2.4212139 6.2692986e-39
-4.3036833 17.893898 2.4161215 6.8228311e-39
-4.1209278 17.897938 2.4104519 7.283452e-39
-3.9082859 17.916763 2.4063251 7.9288228e-39
-3.6923814 17.933075 2.4022355 8.6660263e-39
-4.3801565 6.0424671 2.6018691 1.0047523e-38
